# 3D point list with one line of data per point:
#   POINT3D_ID, X, Y, Z, R, G, B, ERROR, TRACK[] as (IMAGE_ID, POINT2D_IDX)
# Number of points: 411, mean track length: 3.4900326205146794
790 -3.5560366307745963 4.091106896845905 5.260756900502888 42 38 34 1.4098959778233364 2 176 16 299 5 172 3 205 6 195 10 169 15 320 7 210
5338 -2.2874251267091146 -0.92443674711180324 3.7336447067508525 0 0 0 1.8129048689292491 35 77 41 185
7736 -1.5846018362566219 2.1479904325350963 5.5054419722397343 0 0 0 3.0861341703981369 107 148 108 132
795 -1.9620249280933908 -1.5424662323680183 4.0987718489968366 228 227 233 0.0198880250866659 8 103 11 102
811 -1.2095068982323578 -0.16283009894811182 5.3021988982274504 195 190 187 2.8666580879690868 7 14 1 28
821 -2.4640261219388715 3.3007261263693053 6.5027771928041957 89 80 71 1.9122500290857034 16 57 1 60
2919 -1.4012971523986892 2.9372439820629723 6.33297999503987 113 106 100 2.089665500236634 46 874 51 493 49 92 55 711 44 185 40 244
835 -1.3413262464491078 2.1145050676599064 6.3450692096733805 0 0 0 1.4082640373016198 3 157 15 197 2 165 16 135
1266 -3.8063206409726709 3.7203112548510484 6.7702257311814567 0 0 0 0.047863451470396882 3 12 10 11
839 -1.8052800211740831 -1.3862379036361974 3.5640074965445212 139 133 135 2.7442677926251822 16 255 1 166
5290 -2.566518580954916 3.222665353445259 6.9534555986548972 132 124 121 1.3834394407219381 35 126 36 114 39 153 34 97 33 150 42 129
843 -2.2632123733385363 2.6507341077255386 5.7537433269118639 117 109 106 1.5701832072975739 15 942 1 188 16 1283
844 -2.2292219941972071 1.5872969861283199 5.2735909755227635 116 112 109 1.728726336638313 15 893 16 1025 1 191
2996 -2.3230037636883325 1.5592477712560806 5.1038710012878674 162 158 157 1.6941817332951372 46 146 48 154 44 144 47 147 43 128 51 187 15 191 5 160 99 106 100 66 45 129
2053 -1.9044770287022144 2.1497242555760687 5.4633256810366166 118 97 93 1.2200863587970265 2 293 79 221
5023 -1.413104660841489 1.8996810885707529 5.7135417438711471 116 107 108 1.2438988949691669 60 644 110 401 114 487 113 393
847 -1.5856532004591268 -1.6868210780685973 3.7499316633791469 81 77 76 0.76716585588524033 15 558 16 894 1 216
1218 -2.1449000515426757 -0.8918208832581408 3.8262891157307188 0 0 0 2.9044432048243998 6 443 7 285
3111 -2.5764814928332949 -0.49530714575978924 1.6709138875297342 157 146 142 1.0008149917659415 46 325 43 570
854 -1.6274494753836395 -1.647778250498956 3.6857335609480639 122 122 122 1.4604256643729454 15 1009 3 537 16 895 1 253
1729 -3.3404687814923086 2.7355380123112458 8.6672182935329669 205 199 201 1.9640154986045548 11 486 13 781
4874 -2.2537672579589487 3.3893067335357805 6.6822436097092011 106 105 102 1.1525461110080519 105 433 108 104 109 107
858 -1.4819234634557705 1.6775725711718756 5.4001315967689214 182 186 189 0.54478294682507744 16 639 1 275 15 1127
859 -1.7444602999360086 2.1981879751582785 5.5309685405805098 157 152 149 1.4244318954526842 2 374 1 277 74 235 73 392 71 243 79 269 39 531
1226 -1.5428557355940593 -1.1745281889596098 4.3259351385389673 125 120 116 2.6957542417634581 6 447 5 415 40 327 8 460
862 -2.4703016365427097 2.266147689180118 5.7098393221917139 109 104 100 0.67387770675741931 15 736 16 1219 1 292
1737 -1.986841430081755 -1.2853232491871962 4.7809787457464568 186 178 175 2.3107461075451878 12 75 9 95 21 148 20 115 13 181
863 -2.2670140377688703 2.3411564286428361 5.631141574300587 44 40 39 1.6455721603762974 7 531 1 297 6 343
873 -2.3330573700452879 1.6136170527938449 5.208455832844967 109 105 102 1.7415969378367666 16 642 1 360 77 229
2224 -1.6174781827496103 -1.4553982922998714 3.5286662968228586 107 108 110 0.63848701988628942 79 296 73 321 70 194
2817 -1.5744842250593922 2.0076454869350884 5.5244197500657037 35 26 21 1.6349782547646661 46 512 47 667 51 603 60 637 50 148 109 238 45 369
875 -2.4954663391587411 1.9872102208625262 5.5430979878291655 154 148 145 0.73464366196016984 15 947 16 1312 1 369
1178 -1.7975146110278184 3.610568657350135 6.9680770287625737 146 135 129 2.4420455498159948 7 211 11 311 14 304
879 -2.3165110988895692 -1.0079663753296109 3.9002056234685964 44 36 33 1.7389638363493267 3 542 1 68 77 66
881 -1.4418195357924894 3.655249052411659 8.6777214619158212 177 173 170 0.94445798500099942 1 100 4 145 3 139
2248 -2.3056580710687351 -1.386611005143001 3.7950668154684597 97 89 87 1.5299673021968594 77 27 71 16
2905 -1.479795944873628 3.3312092661929404 6.5893770948901 104 97 91 1.6025983342455974 47 115 44 128 55 274 111 460 105 317
883 -2.0871034422722965 1.6268555236183841 5.2036975236860386 0 0 0 0.4469176212622743 3 284 7 310
884 -1.7087755632713195 2.2814996357246127 4.8289841917471152 117 118 122 1.1438768482593429 2 231 1 193
1767 -2.0356496643297128 -0.86582808052727522 4.251186453963129 131 122 115 2.0348667025832241 11 95 12 76
885 -2.2224995273140191 2.101855495592071 5.4468418893953841 150 135 132 0.62604001996856484 15 725 16 605 46 286 48 345
2236 -2.0873190866990257 -1.5523658150388888 3.665060592277722 84 83 79 0.97180647722095426 79 89 73 59 70 57
2829 -1.6135264226768247 2.0614679088131944 5.5638767081790164 134 123 117 1.5394867477637733 46 436 47 730 40 265 50 149
891 -2.3753791532833866 1.9082191760336924 5.2179884281736326 184 176 173 0.85009264336272727 5 23 4 81 99 62
893 -2.83649264070683 -1.2861982348411645 5.362286609133597 0 0 0 1.6548152551022322 3 66 7 76
904 -1.2125309291143664 -0.19310995023986377 4.9873370755343265 201 191 189 2.6230662992468319 2 20 3 24 5 70
2976 -2.1638503773417743 2.7697733949056298 6.2341749720836619 99 120 131 0.58779238394940103 46 462 44 495
2097 -2.6228144681649339 1.9380550155572434 5.6743301573906582 124 116 114 0.94383380727308719 79 77 74 79 73 54 70 58 66 76 65 79 64 96 63 100 62 72
915 -1.8893806601213932 -0.46514124974560628 5.3835189811962998 174 173 171 0.37687747211849076 7 85 8 135
4881 -1.6061443205273092 2.0379599717736503 5.8334092123778021 132 127 123 1.9373560657113742 110 315 111 279 112 399 57 371 113 371
929 -1.438252477710366 1.57190107115261 5.7732981404656378 155 151 150 1.6016633415228843 16 1126 5 192 15 1116
1590 -10.291669509276371 0.68617342708585383 9.7156723230764541 129 118 116 0.63380268432415754 14 181 11 317
3127 -2.3856213126860002 2.1642978372356501 5.5295581871782877 155 155 156 2.1411865083989698 47 402 44 301 46 289 47 400 45 363 41 154 35 133 46 291
934 -2.0022944820325059 2.5140871342262074 5.6472221587129683 147 150 155 1.1940382539693013 16 365 5 214 4 149 8 292
1745 -4.1144725690853488 -2.5414962915745685 4.7289165625308272 161 151 149 2.1040738232724143 11 3 12 5
935 -2.291030249504785 -1.487304824271811 3.59859113888814 85 77 74 2.4482632810291358 6 378 16 429
937 -1.9352446687046403 2.4371664398427009 5.6425081214937505 73 76 83 1.9246063647498357 15 755 5 231 16 1080 6 354 10 222 16 210 77 283
1242 -1.6774633178522986 0.18863826291955466 5.2242898539872664 147 143 144 0.7413228780652108 6 229 8 612
942 -1.5849798473209191 -0.35375456021464818 4.6848920228131208 187 187 189 0.40031492759056864 15 1077 5 281 16 1397
7231 -1.9145180985526178 -1.0546554426244663 4.0125559350303401 110 106 103 1.7731077607394483 64 63 68 37 65 48 63 43
1063 -1.7781580874470015 -0.95076950786331937 4.2227531570736954 129 124 121 0.28448385833647583 5 412 6 392
1548 -1.2804020979877269 1.8412571170326031 5.7805172368839512 195 190 194 1.7355493342095833 14 386 11 61 13 88 13 396 12 84 20 95 9 62 21 67
959 -1.8088411585873869 2.2709249567103198 5.5385820291879178 94 94 96 1.7455941457888902 1 374 5 364 11 640
1107 -1.16980516759459 -1.2100465728589083 11.31216137189465 0 0 0 1.4989248793391505 3 249 7 389
962 -1.435436869298143 1.1512111945583492 5.5492123814297578 207 203 202 0.79703052239213301 16 1290 5 389 15 1109
966 -1.4415276429030974 1.4559544929553867 5.7955157339570853 205 201 200 1.5445510811003118 5 404 6 507 2 448
5355 -1.5243450270252867 1.6444682020838992 5.2001971516653978 0 0 0 1.8384898891111847 35 119 45 162
970 -1.6245368245014979 -0.8409936174957654 4.2484254212103654 204 200 197 1.4470166679315311 5 428 6 462
2344 -1.1307403212367579 -0.35197137808219431 4.4502705930027879 198 196 199 0.53224841915653265 11 131 20 107
3369 -1.2959555270241336 2.8766381426700049 6.4417293521814711 58 53 47 1.6267312367151867 48 125 45 282 97 221
972 -1.6363827249566112 2.3458084459447868 5.9310617363664848 142 136 136 0.63230558821302174 7 81 3 133 6 36 8 36
3362 -1.7349977020761849 1.9588391229114901 5.3809888066815663 97 80 73 1.5689378898308664 47 391 45 255 40 316 50 147 52 288 111 412 55 503 110 430
2181 -2.3109460067432428 -0.95302343147718205 4.3141915316374728 76 73 66 2.1417112615806917 79 83 73 45 70 49
973 -2.5185182494189435 -0.0056130645387128895 4.3926326363330448 199 189 187 1.9547647131980126 7 319 8 47
2339 1.0271936134319499 -1.7125294302291707 1.3907995906496873 116 113 120 0.9613713133663242 13 414 20 75
977 -1.9511660146113503 2.8758838444626296 6.1116106374294628 135 127 124 0.62761553880938581 2 174 10 144
979 -1.571576716787535 -1.7083990645857281 3.9260631250948061 179 175 176 0.79212630837009002 5 151 6 101 10 112 8 147
5445 -1.4852042006574393 2.0224214094943136 5.5780599490136735 135 129 129 1.0534053468762514 112 183 111 177 114 357 57 91 113 275 107 151
5876 -1.7809977336653777 2.4980689854990215 5.7872711469009159 66 68 73 0.9487843814781719 112 393 114 395 60 205
983 -0.44529061585769419 2.8178915251014423 5.8779770541489205 194 184 182 0.026440450799310386 5 0 6 1
1600 -1.9295077600180988 -1.9638032722473573 4.0805926449185579 181 172 167 1.7840081691891181 10 370 11 440 14 424
1658 -1.6302203077486925 -0.90091171015273996 3.7583455202782226 135 130 126 2.1330649370485157 5 62 12 150 20 119
989 -2.0780507268615054 -1.425765296112417 3.675129023169406 145 136 137 1.457438211750834 5 15 8 19 14 37 6 17 10 29
2355 -1.8342860885470833 2.4572573933093707 5.6911467995276785 79 75 74 1.1439072529746168 20 153 21 174
3103 -2.0047931699257386 2.561235115638445 5.7292056296620579 106 124 133 1.2479538451295247 46 458 43 529 41 485 51 317 40 273 97 219
990 -1.5649141139925642 2.4712483034370578 5.8512730926234564 158 154 155 1.3891417728484834 5 18 6 19 10 27 8 23 14 27 7 36
1654 -1.1598174439204616 -1.3272080817718617 3.6125298638901362 127 116 115 1.5974375904102596 11 153 12 36
993 -1.9859512365642888 0.32858259841987852 4.5143659031752579 148 138 136 1.759151637035232 6 24 10 35 14 53
5215 -2.2667926406833541 1.835938033552464 5.3965482570313856 47 51 52 1.1052383895781688 97 29 52 29 98 30 96 32 95 24 49 23
3022 -2.077422485781327 2.3224845021940954 5.5609462653683117 43 43 45 1.7008322722162816 46 89 43 72 41 115 102 278 36 105 33 90
1039 -1.6248208379325881 -0.99926359514835983 4.1512931404524522 164 160 159 1.2162243002425972 5 413 6 290 10 390
998 -2.2447602494633134 -0.95263591247998225 3.995088320061881 57 47 45 1.6585774245907026 5 29 6 46 4 43
1662 -1.6189831994011983 -1.2781914036448412 4.3194573738275386 187 181 181 1.5874187888992939 11 98 13 109 9 140 20 120 21 100
1003 -1.4708328872530056 3.0714788591328941 7.2611079146196857 153 145 143 1.6632134100673615 10 80 8 117 11 65 6 66 13 65 5 82 9 66 14 107 12 88 20 90
1005 -1.2844751725451231 -0.47411124336186594 4.902007601151432 199 194 190 0.86129181820080114 7 23 8 93
1047 -2.4420161667767291 2.335627817623485 5.7340400121810733 123 114 107 1.6974727171938002 7 215 6 308
2950 -2.3447006164359427 1.9032827348096593 5.339327805993296 66 66 68 1.7880484614013723 44 342 43 373 51 569
3119 -1.282924354148913 1.8197677128047147 5.8153352165706984 149 140 135 1.8272977951691909 44 81 46 85 47 92 43 75 45 72 48 76 47 168 102 78 46 220 51 42 97 99 99 59 52 63 55 61
1006 -1.8552986061536396 -0.8746185500389192 4.0610817194343376 114 101 95 1.1866656957850035 5 103 6 79 10 120 7 127 8 96 13 116
3632 -1.6717939891375884 1.8673183113935072 5.3213690717491238 135 124 122 1.0901674283841789 51 271 55 390 105 286
1011 -1.4992423415486862 -1.6028671267727159 3.9277398097980694 194 190 191 1.36528520572356 2 282 6 102 10 113 8 128
1055 -1.8482739570995641 2.2627710041575759 5.5520400984612932 111 105 106 1.391379546024196 16 495 6 350 15 421 10 346 73 202
5808 -2.23000479264689 1.1033415142281942 4.6231327438690686 205 199 201 0.70639073432848898 112 235 114 53
1632 -1.7191600366174165 -0.86013555128237462 4.2687148648927877 140 131 126 1.6646704009314939 10 96 11 83 13 57 9 54
1019 -1.3934836518996072 2.9333576329450377 7.3227155137905369 161 153 151 2.2721721016258143 5 216 6 149 11 224
3656 -1.6439484985909314 -1.0236484133328445 3.9613767893483285 105 104 99 1.6293942184732539 51 508 55 570 98 163
1127 -2.6826862493919852 -3.6183269744123354 4.3550230452336409 0 0 0 0.42253870677357896 5 217 7 575
5692 -1.3958731499257861 -1.3691818562470452 4.1697798355745403 0 0 0 1.5961713963948863 4 21 15 20
1612 -8.3123291812622444 3.4050266970504404 6.1894351385420991 172 161 157 0.11345733342118852 11 603 13 489
1023 -2.372955901382011 1.6827012347212311 5.3877972651684498 151 141 139 1.006743259231458 5 256 6 184
5200 -2.3308963288998181 2.5562442250352673 5.7519302677573005 101 99 100 1.7242961843350137 106 45 37 60 108 48 55 42
5921 -1.6857037890518336 -1.0086591856392788 4.2335609441356796 136 128 126 1.8781220162889267 108 35 109 30 113 29 114 29 105 40 98 54 106 36 112 27 111 35 37 56 110 29
1024 -1.9603640783755556 1.6726241861515025 7.2080968951654265 158 152 152 2.1679755263244109 5 112 6 185
1026 -2.4666292569922343 2.2116175890282608 5.6317842204599371 176 169 163 1.5587729367077641 7 320 6 187 4 113
4759 -1.1782514170492655 -0.40246617422287434 3.7046839899927693 129 125 124 0.80238475370350015 60 46 106 184
1029 -1.8048189110284918 -0.54448143930814819 4.645592634341341 135 126 127 1.7041312851784867 2 422 13 357 12 579
4553 -1.7357406841850618 2.6776177613255032 5.9496628078479796 143 147 150 1.7593854671344911 48 137 60 211 37 227 106 230 57 292
1038 -1.5672555840632594 1.9210547886741196 5.4330555572264307 38 27 25 1.6545662183223713 15 596 16 621 6 284 77 277
4978 -7.7242321364461564 -0.7430189302166903 12.174725662570433 167 159 156 1.7225253736196482 110 211 106 241 60 245
1043 -1.2640603147577762 0.87745054768205988 5.0899928880989291 159 154 153 1.3976489171915207 15 94 6 299
1044 -1.4348362686156682 1.3776910854638309 5.719882366000431 166 160 160 1.5842986393509684 2 445 6 301 10 533
5285 -2.1379982661254915 2.2541797766204654 5.540680196189439 121 115 115 1.4197390547721953 35 113 42 110 36 104 38 75 50 69 39 97 33 82
6100 -1.6781203782901537 -1.4285869998749143 3.5800637472887167 68 58 56 1.6811983169478844 109 174 58 167 60 124
1045 -2.3360470194908922 1.9887480654279235 5.4258631087964133 70 62 57 1.8376401237261133 1 281 6 302
4465 -2.013167458195452 2.1259385819024397 5.4307096570443436 117 94 88 1.1018308771127749 41 63 42 54 35 90 36 75 39 68 34 81 33 63
1046 -2.1089969023753281 1.947809813364932 5.3305193699175852 150 132 130 1.7790185723375174 7 222 6 306 10 238
5289 -1.5566964616910721 -1.0290536789495905 3.9319380810203723 0 0 0 2.4305037336011335 35 129 43 120
1928 -1.8050514759955816 -1.6130062415934168 3.8756905272838509 184 188 193 1.099790084736167 1 87 77 73
1053 -2.1206642333976053 2.1643802758802884 5.4911037725582377 155 136 130 1.5885167338006791 7 535 6 340 10 544
6851 -11.270962796962793 3.0415053070108455 7.0627771993566988 0 0 0 2.0665216411280127 57 123 106 222 110 202 108 210
1060 -1.6286902360970223 -1.5511758687877377 3.9367309569268678 205 204 209 2.2401443879664629 7 281 16 1156 6 383
3782 -1.5358230838671718 2.5343703077525341 6.1121826667050145 94 87 82 0.1672909693654695 51 638 52 242
5240 -1.7243939706766351 2.1714732235841323 5.5948284483055719 62 53 48 1.8180481739992109 45 169 99 196 97 171
1064 -1.6983036962806353 -1.0248177408501848 4.382995714926091 174 170 169 0.5499430245998832 2 479 6 393 4 376
1065 -2.4325603166520513 -0.60262314817286522 4.336133043744625 110 101 96 2.59776743169604 5 270 4 382 16 691 6 394
2763 -2.1054901559756156 2.219366861958993 5.5031229104286865 183 182 184 1.5256910669560555 16 1063 48 365 47 410 45 268
1072 -1.8336839531552815 2.4583944239996711 5.6755440614663693 93 91 96 1.6739650756489517 15 418 16 491 6 416 71 305
1074 -1.3820850877733544 2.361089247905221 6.5551740002991048 0 0 0 1.1524626611364175 3 390 16 1224
2477 -2.2552425772000895 2.0390747634721533 5.4272624383630204 80 71 68 1.5489564282345085 15 888 1 285 16 1198 66 491 15 889 79 384 73 284
2780 -1.8238046862125843 -1.0068872657559464 4.1479287761054229 31 29 24 0.84072633506709893 46 382 47 493 55 350 60 374
1080 -2.5219440892699621 -0.33507522860779471 4.4419417372302492 202 191 187 1.4590950223555776 15 470 6 468
1093 -2.1025476790598008 1.9891281020385336 5.3567240953918018 112 93 89 1.3712583176276492 16 615 6 527 46 280 44 297 42 297 103 169 32 278
1094 -2.1612541837237695 2.0447593481177138 5.3786617818415676 172 153 152 1.7124533846287207 2 339 6 528 74 186 73 196
1106 -1.3906929827587657 0.5502446002850514 4.6992319318540101 183 175 173 3.0373635513414614 3 102 6 120
5349 -7.2015196593472055 -0.05129018830392118 10.370184764071064 193 188 185 1.1134828374084669 42 332 36 142
1109 -1.4312228052053384 0.67155999220743312 4.8521181014123407 178 170 168 1.0437110164182528 2 511 6 137
4529 -1.728322216894979 -1.1088919821960312 4.3386512400874517 142 132 130 0.048159587794533096 47 124 37 79
1110 -1.717179096192198 -1.2311253529720565 4.2759291492164389 152 148 149 1.4481352632636117 2 156 6 146
2855 -1.6329602720963936 1.515510447211788 5.1407405642112654 108 105 100 1.6197276399154554 46 815 48 556 97 186 47 853
2507 -1.7222901075090373 2.1525016529528855 5.5755874525473308 145 131 124 2.0482522597513229 46 622 48 315 47 555 43 533 51 309 41 550 10 344 97 245 100 151
5296 -1.5952656249491299 2.1229258163230327 5.5037334324268201 120 110 108 0.67738945636187431 35 168 50 106
1120 -2.8254825528030909 0.19619765082004209 4.9455906791216853 142 133 128 1.5554300998569954 7 37 6 488
1121 -2.3055134053349056 1.7885493319684449 5.4682236231957599 108 100 98 0.35204973461529609 5 403 6 501
5893 -1.2067968573827847 2.6598372709104345 6.8212965044779477 53 44 39 1.8511650044534154 111 367 114 515 60 667
1124 -1.7190907606721142 1.6500579701561933 5.1590196193328151 48 44 43 2.0522778561735175 2 530 6 512 79 371 73 268
1940 -1.6122675657369936 -1.4872063389713541 3.561393045034067 134 137 142 0.27810486024611836 16 736 77 128
1125 -2.8547596310805656 3.0073878587771632 9.2597443127222263 0 0 0 1.9834162053978082 3 385 7 525
1126 -2.2060721023925405 2.5463826476625271 5.8689088652826689 0 0 0 2.9096648839535977 3 294 5 367
1134 -2.2376858043823988 0.8537682107109561 6.7800694113857247 173 171 172 0.037665301493998826 7 48 10 20
1136 -0.16879176415325037 0.6645223001778976 1.2166860376888704 185 175 173 0.50621342775688527 5 237 10 32
5257 -1.9241090415080078 1.8535964043952424 5.501184993936219 31 27 24 0.7951654329736213 39 8 34 4
1145 -1.8928517791308761 -1.7248782594958991 3.9243825365547602 98 93 90 1.1726695833762728 15 151 16 179 11 105
1149 -2.0110548875933083 -1.8140309663403344 3.7810176958457404 89 81 78 0.3601346887930158 15 306 10 75
2839 -1.944895754823937 2.5964636229103673 5.796205831592034 114 136 147 1.2715771756427181 46 638 47 762 51 623
1163 -1.3283924941115304 1.8110926745455129 5.7117814159536859 181 180 185 0.73859619621870098 15 703 14 244
2328 -1.7106704803454007 2.0036733855500697 5.4230922066065963 78 59 57 1.580816702962289 15 159 7 146 16 150 3 197 2 166 6 127 5 195 10 147 8 153 11 196 13 231 12 307 79 183 48 88 46 88 47 78 44 113 43 106 51 72 41 111 55 108 52 105 42 112 40 104 102 91 77 136 60 135 99 96 38 73 35 114 37 128 105 119 106 155 110 145 108 134 97 102 50 83 36 128 111 164 112 181 109 141 114 242 39 199 103 74 100 71 45 91 96 106 95 121
1821 -1.5259061543958077 1.37024876731402 5.8929680732115468 210 204 206 1.1700960416298734 11 621 12 706
1164 -1.5947592334190932 -0.60089127668318576 4.6330082830776744 202 201 206 1.6583765397194776 2 315 5 156 10 155
1169 -1.8299747074789281 2.69639836247732 5.851195123509183 159 154 151 0.60116203470746177 15 267 14 222
5106 -1.209858327689098 -0.35775318191160871 6.2146225120704317 175 167 165 1.8049537206903365 52 348 108 237
1171 -1.3728611559486974 1.9350819159877852 5.5456461721985049 184 178 181 0.81452165757519346 7 214 10 197 14 308 11 306 13 331 12 281
1172 -1.4977872804662309 2.4633052844273009 5.8814225702658831 152 148 147 1.3326215166356783 46 187 48 99 47 177 44 124 51 113 45 142 52 117 106 192 50 108
6426 -1.2137532525029449 2.8628494563239397 7.6899607189573809 0 0 0 1.5961984591864857 112 32 57 32 107 35 108 24 111 21 105 36 37 32
1173 -2.0550053438320193 1.975566492796093 5.3449633153853133 159 141 137 2.0342068893471508 2 183 10 211 79 152 74 142 70 109 66 197 63 155 62 139 64 132 15 715
1175 -2.052995820286998 -1.8020310031223978 3.7308262809362778 79 69 67 1.5020003709208509 10 213 71 42 74 114
1897 -1.4323889161063565 1.4740299770010667 6.2322008564218887 199 191 189 1.7996075024271321 13 308 9 539 20 660
1176 -2.0043846544014587 2.3920643359973384 5.6125003146737109 96 92 93 0.90297682864818007 7 140 10 220 1 155 79 156 77 160 74 152 73 145 70 126 65 193 66 340 64 254
1179 -1.769859352834636 1.9660456535825648 5.3765712996692132 166 148 139 1.2079162140643414 15 305 16 358 10 242 14 377 13 388 77 165
6140 -1.6362365900059206 1.7248763530512317 5.3302699505529461 38 37 35 1.2995233168243587 108 269 111 445 109 350
1181 -1.673866188977293 1.9425603423680275 5.4031204764911172 174 156 150 1.2432040614990041 7 250 15 304 16 357 10 250 14 313 13 232 12 364
5199 -2.0791007503540992 -0.82332969399133293 3.8440379983687056 196 193 194 1.5303868492881545 46 165 47 133 51 121 55 154 108 129 43 132 106 182 52 95
1183 -12.097745215122647 0.93635473166645611 11.296042072267809 125 114 110 1.2908879212401372 5 208 10 285 8 371 11 286
5360 -1.7671437139617876 2.167503569050981 5.4599578890980576 47 37 28 1.3820977822409652 35 257 42 295 36 189
1841 -2.0414580799291735 2.385653134438253 5.8481930913458946 159 141 137 0.76309845099869789 9 4 14 2
1184 -1.2845188744100595 1.5448927644513375 5.5970654070779302 157 152 149 1.5150452613593699 2 450 10 331
5364 -1.663908744536496 2.194250863455514 5.6092432862313659 123 116 110 1.8291106702396001 42 222 99 194 36 218
1188 -1.8345831014249829 -1.8060829350388268 3.7331203913486233 0 0 0 1.0959591067304122 2 461 15 383
2004 -2.4018375364627662 1.9479220565840754 5.4534223493087133 109 107 108 1.2450037032819634 15 196 16 215 79 117 73 103 70 101
1189 -2.1334287564641943 -1.7826884042625257 3.744077296556334 107 97 95 1.3056500912804505 3 320 7 450 10 367
5143 -1.7231924318064888 2.5750210582101727 5.6459136152821916 0 0 0 0.77047937583296866 2 76 4 60
1191 -2.1104801308014691 -1.7596473520261471 3.726901940673216 142 134 131 1.195175337615902 7 454 16 556 10 369 15 563 14 419
1195 -1.626614434703135 1.9256768738534948 5.4181626402115084 158 145 139 0.082103444564450151 15 597 10 403
2360 -1.2672737703987649 2.8394453892217939 6.8118361360497781 180 172 170 0.40664313385911377 9 125 20 182
1853 -1.5709587722829204 1.5535602422010262 6.7399099486920111 143 136 130 2.6147722960763229 14 64 9 50
1196 -1.5014463690670672 1.9237407405201099 5.5317225752729433 115 111 112 1.6773229233694575 7 537 10 410 12 680
5374 -1.5218862005374389 -0.94046464677865893 3.8800019899868867 132 122 121 0.34701982403306331 35 362 36 378
1198 -2.2479452249980389 2.731610057414096 5.9034087354061002 111 103 100 3.3265099643327725 7 407 10 421
1797 -1.51179815782602 1.5758520131500326 5.9881616408265508 167 161 161 1.7103654886776301 10 357 12 229 5 399
1208 -2.5632541982042021 -1.7863160749164779 4.027663664533379 78 70 66 0.94356865982727001 6 562 10 454 14 621
5324 -2.5323635011108236 -1.2517384097139983 4.016920361298391 197 187 185 0.53489958305039054 50 35 36 50
5981 -1.7659615541834726 0.185260813694475 4.3707032030004154 142 136 136 0.61349762128120411 114 205 113 233
1212 -1.8583355678232152 -1.7396718021409892 3.9573006126323045 129 127 130 0.97081676820509821 3 214 10 464
5230 -2.2119293203499479 -1.3963518958917307 3.5088127871428547 247 254 255 0.84178903060286225 99 101 97 82
1214 -1.8338474442334527 -1.5256410610844737 3.9989402045852138 182 182 184 1.9266891032937936 2 411 10 467
1220 -2.0280514478904186 -0.97562259350573288 4.0912113407242465 93 83 81 2.7172037125478816 3 590 10 503
2362 -1.3452163654223597 3.0522925510003884 6.9459235527394165 137 129 127 0.4992010598886219 12 126 20 217
1221 -1.4833783136754166 1.2449254246681314 5.7313369821575728 0 0 0 0.40247832110906878 5 407 6 414
1885 -1.6955954820852837 -1.3632076108121012 4.4516503605328319 137 129 126 1.078106783564583 13 379 9 285
1228 -2.0755044006887302 2.2364497613713819 5.5203361971647968 146 138 135 0.80071692662768423 15 429 16 499 10 626 46 226 48 308 47 300 41 208
2594 -2.1142718423753371 1.9786031809085596 5.3165572872466083 115 101 101 1.4767405412698638 16 617 46 573 48 340 47 480 51 389 43 380 55 603 35 373 41 294
1229 -2.2011153758195166 2.5759076262464191 5.8022656779857105 109 103 103 1.4753660110249864 3 578 10 629 14 719
3619 -2.075026700983122 3.4515070795648448 7.8394318273202686 94 89 83 0.49609721165780896 51 494 52 595
2831 -1.8800631204779186 2.1340509891416213 5.4368668609827973 162 137 130 0.39191009363471707 46 829 47 734 51 597 55 854
7724 -1.7063166766592308 -0.85513964918525442 4.0419269233931967 149 143 140 1.3815316335330519 79 197 74 121 73 79 39 72 34 70 33 77
1230 -1.8344592821654824 2.4325923368243108 5.6557093515548784 141 136 142 1.2856683849278701 7 405 15 931 16 1258 10 636 14 573
4588 -1.7554142786904785 1.8975462237405027 5.3886493031496938 131 120 118 0.74052472337409436 60 618 106 321
4733 -0.92127102916738202 3.1643741583348515 7.3366635152184605 118 109 104 1.5303389498071931 111 30 113 36 109 28 58 27 106 34 107 36 108 25 110 24 60 21
1231 -2.0701100763909022 2.8094391110974239 5.9677035949010282 130 122 119 1.2999716167132003 10 653 14 301
1232 -2.0640950505910718 2.971551162655524 6.0523043133999206 108 98 96 0.50671603553403421 3 591 10 655
1957 -2.4723677339818049 -0.60534476293618644 4.4834687278536398 126 121 117 1.1916815069739628 2 487 77 271
2314 -2.2193265315962023 -0.9245096322403149 3.8854777060832824 40 35 32 1.5043290673913825 15 397 16 719 71 319
6490 -1.7818237473589014 -1.0218523751188275 5.0056220715389665 203 199 198 0.017505500728786458 112 14 107 12
1237 -2.0873240580177792 -0.43501723349956101 4.3197156008909188 159 150 151 1.617789543655999 5 16 7 21 14 60 11 55 10 45
5254 -1.4948050238717419 -1.0940047533138773 4.1364903794554841 81 76 72 1.027680521349946 44 592 47 701
1238 -1.8690522294838441 2.3320090511700493 5.6125971420053178 85 84 85 1.6829967173474099 7 515 16 1068 15 627 14 571 12 449
4596 -2.2388698352870784 2.9425238093487054 6.2484757783570322 179 178 183 2.0451364974005801 37 108 106 120 108 103 55 82 110 124 105 84
1239 -2.1709107497854916 1.9052912125279999 5.3530423425323308 39 33 30 1.7103192431190177 1 270 10 436 15 594 6 186
1241 -1.5289065327457119 0.16588701881785506 5.0186971772701989 211 208 209 0.98872493327318778 5 72 10 87
1244 -1.5963840556730609 -0.29773117477850597 4.7454103400669432 211 211 213 1.7476023855357181 3 109 14 141 13 138 11 90
1245 -1.447899297249861 2.8829770947052675 7.3748771460657192 159 151 149 1.3896771833301105 5 20 9 148 10 142 20 181
2466 -1.8529816247848792 -1.3854542253708468 3.5895969340008897 150 154 161 1.8180681064241642 70 156 66 438 62 168
3635 -2.3261752513905516 -1.4525552938699753 3.4270340027487869 158 153 150 1.7902233097722364 102 247 48 429 55 426
1905 -3.5570980928937073 1.1774869915208392 5.0126189304060835 203 192 188 2.4424947473943699 13 8 9 10
1248 -1.724260342713277 -0.60810856363127808 4.5834416102754307 121 121 121 1.7716770619653286 6 568 14 128 9 92 5 278 20 170
4390 -0.32210557810429824 1.9406955035449787 8.7397558984237698 147 136 134 2.4157683492700035 40 122 43 255 47 216 45 172 46 424 48 131 44 145
5201 -1.7666002310265669 -0.88229430510966367 4.004702342330976 46 43 41 1.1576291536264038 60 113 108 96 106 115
1249 -1.7930382337155759 -1.7705615934405419 3.6584223237377058 0 0 0 2.5993339878951947 3 529 15 308
6512 -2.5626947383542276 1.9679981264858923 5.8630362460645618 147 142 146 0.9179307118762865 36 39 39 60 34 32 33 56
1251 -1.7655295182137714 -1.6732350264859899 3.7184592557803215 133 127 129 0.28555592482012521 7 457 10 460
1252 -2.1181154514403318 -0.94049769552617146 3.8561942913855383 129 124 120 1.8093120415092336 7 567 10 471 14 758 7 332 10 472
1253 -1.967199040735754 -0.92219735577308626 3.8703585035131036 33 23 21 2.0375632835999933 7 524 10 502 14 550
1268 -1.7530313184827491 -1.6507206536473586 3.9838859688656778 252 251 255 1.3848980907366244 13 23 20 25 21 28 5 14
2346 -2.0991988072493717 -0.32912795212139839 5.2072513176727213 203 198 202 2.0702996006840717 9 145 11 92 20 109
1272 -1.8735410110311042 -0.92321847616641528 3.9002255411997537 25 17 14 1.1706456098352582 2 39 14 552
4510 -1.3261450162169295 1.7192815932722219 6.3202117095277091 0 0 0 1.7208088922716138 41 44 42 122
1273 -2.4486870405845509 -0.91874542684558835 4.1332588945090736 207 199 196 1.4579464216418512 5 30 10 117 4 32
1869 -2.2761796804540544 0.11534211091554672 5.7105316429136357 200 195 199 0.75042825360263965 11 602 9 90
1276 -1.4639351791892541 -1.0584095630481543 4.2669409140593686 212 204 201 0.96224736147693879 3 48 6 145 4 44
5293 -2.0977222264672721 -1.0859661328008501 3.2138577435983509 151 149 154 2.1987060691462617 41 153 50 95
1277 -2.1851720768581471 -1.0385438366945612 4.0529199644288347 172 172 172 1.3462057294205947 79 116 74 102
2370 -1.5588497092232543 3.1391943002406264 7.592962649116104 132 124 122 1.8735244703545753 11 658 13 403 20 369
1720 -3.0091010264138305 -3.8580119994372977 3.7712890903936063 0 0 0 1.5173333223451375 10 359 11 671
1289 -2.0442677358879298 -1.4616940047127591 3.8511829550352576 87 78 79 0.19771211412720258 4 105 11 88
5469 -2.077813483528153 2.8110278583793358 5.9967862286681246 145 144 147 1.7207647048651133 52 47 111 266 51 53 103 38 49 27
1724 -1.740279092598757 -0.55400255087004802 4.6264003239970615 238 241 246 0.69409009998790738 11 722 13 725
1293 -1.2817398379160709 1.7948786369580034 5.744110097421431 0 0 0 2.0155241483909152 2 185 15 195 4 112 7 50
4215 -1.5141083719747823 3.0155390890149079 6.8858126439441305 47 40 34 2.8146489670513426 51 490 60 466 52 506
1300 -1.6690090373655821 -1.2882951611213822 3.3935816795635718 253 252 255 0.6277557359422683 3 221 4 159
3372 -2.3720385973541527 1.9075571238473206 5.3475297198670271 185 185 186 1.4172258318430098 43 265 41 296 55 435
2187 -1.941033895041224 3.4648327203231952 6.2511591961473654 106 103 96 1.3068307311395702 16 112 71 92 77 85
1307 -1.2864998343899303 1.8745901732148347 5.8566304025055773 213 211 216 0.83894406988974923 15 909 4 238 16 1035
1309 -2.3143819942759922 -0.90533889855243133 4.0437399350245791 116 108 105 2.6375073795293225 6 442 4 263 14 761
1336 0.26532589678741958 -1.4484899376711171 0.80114816619782914 0 0 0 1.3111941272651613 6 523 10 550
2219 -1.5887807855495026 -0.89497242193510218 4.1276735763857557 45 46 41 1.0541606569955466 79 317 73 260 66 391
1704 -11.115284429348863 2.657127300390409 8.7802606222854553 192 181 175 0.55177064818665866 14 668 13 450
1337 -2.0441195492570516 2.311173375046121 5.4842365028836468 88 86 87 1.088800020918876 5 245 4 325
3035 -2.4067294672240722 2.2368245863189662 5.6481366061301292 179 177 182 1.5360055676407971 46 246 47 188 43 143 45 257 41 157 40 123 35 135 99 118
1340 -3.5752255143795288 -1.2705228711971699 4.8475807836317903 191 181 179 1.8373954332589488 8 4 14 58
2199 -1.5514172599434459 2.3270423066519474 5.8038162575570764 105 105 105 1.5860494320390848 79 96 73 117
3428 -3.273042717861264 -1.6717363147154964 3.3761737951439241 125 97 84 1.5522113046547474 43 581 45 300
1341 -2.0066409134605081 4.1103528873431543 6.9580923030388648 191 181 179 1.4185459066155579 10 13 8 8
1345 -2.273712886572409 1.8983430373344212 5.4824093121304669 45 44 42 1.4571370820905762 10 22 8 22 14 45
2110 -1.7344914130827906 -1.3499232260437115 3.3671345824062611 74 78 87 1.4369683409654461 79 120 74 117
1788 -1.6096307040709013 -0.49639217652592876 4.5450221175235423 122 120 125 1.0382658734370622 13 238 12 174
2052 -2.3780485414370705 -1.0013007041318871 4.0617350916374759 0 0 0 1.8746254943407159 2 117 77 96
3511 -1.5857607124855033 2.357407521209077 5.7060609097825745 78 74 75 0.86542812015229897 43 220 46 847 42 293
1359 -2.1286112837067139 2.6592213908199214 5.8199963096117742 144 140 138 2.0223727929281865 6 72 10 82 8 68 14 122 11 179 13 230 5 47
5376 -2.1778724751119372 1.9038373164413092 5.3068179626900056 86 74 66 0.85457613442021385 42 702 36 383
6339 -1.5243722782150315 2.1587034095818511 5.9292541194183395 0 0 0 2.1051554760399074 4 240 16 1121 15 417
1569 -1.6579664039419235 -1.6493760702744102 3.8596951697413657 244 245 250 0.8251134495662743 14 150 11 161 13 255
1360 -2.2834576165753706 2.3313845651556004 5.5556717414067096 120 112 109 2.0930362107669205 5 58 6 191 8 80
5380 -2.9284815566419637 -0.022064624161876125 4.0052178134934815 207 199 197 1.3805794242110754 35 11 36 82
1573 -1.9632709110707096 -0.86430261508971185 3.9280556179874164 144 136 134 0.32230266485632253 7 126 13 376
1364 -0.92640752568687479 0.17396077886918407 3.9200043214515667 181 181 179 1.4868439978380712 5 109 8 86
5384 -5.4464198291200852 -0.68302029907877726 11.056307763865764 0 0 0 1.1252572573571404 35 195 43 354
1368 -1.7526055723505347 -1.4716254731246199 3.8008154203619657 0 0 0 0.20222792271588461 5 125 6 119
2251 -1.5720581732804033 1.8438971775952804 5.4831746094486782 64 63 61 1.1362731887174047 74 35 77 33 71 30
2082 -2.2062005313294306 -1.3072844152586192 3.7899424066967007 120 109 107 0.62462940838249259 79 55 74 52
1373 -1.6056777353195075 -0.35391258869523695 4.8267963584012303 149 149 151 1.044267573833892 5 133 8 137
1374 -1.4699305800612732 1.8362428572121625 6.3752606729335799 162 156 156 1.2865459775177928 5 116 12 54 9 61 8 141
1680 -1.9699555979230141 -0.83707403292506211 3.9709798696626204 130 122 120 2.2206941995930842 5 31 6 54 9 94 8 99
1377 -2.219820414463419 -1.4343622013911528 3.5246752866127555 87 82 76 1.6590220811983407 10 161 8 168 13 257
5641 -3.7992517664106655 -0.60204396299458696 4.122688848672083 129 122 116 1.1017287479310025 112 88 109 31
1384 -1.7422802036401301 -1.605171170722556 4.0902743676736941 165 166 170 2.1803000759444542 10 259 8 216
5505 -1.8184645608208363 3.165564711411518 6.5157216463572372 113 105 102 0.46468740138645548 111 488 105 314
1393 -0.32092999696355967 -0.52814409616950442 0.88783961297265057 106 96 94 1.8828249492655624 5 220 8 273
1396 -1.4095332912597092 1.8710543771816877 5.5808911574771072 197 194 201 2.5110151517341786 15 711 8 315 11 439
2239 -2.2598412309474032 -0.99816070209560337 4.1227175161624734 71 66 62 1.8918762876284387 79 477 73 262
3340 -1.4995320749954644 1.9726420495579655 5.523955338546461 27 23 22 0.59551005654207345 46 432 45 147
1400 -2.1582514461752376 -1.1310246398688966 2.7954746651133702 184 175 170 0.74679347054785095 15 1003 8 387
2283 -2.0964133974045751 -1.7593919642450102 3.6557473635232238 171 172 174 1.1173163958780361 71 133 70 187 74 194
4185 -1.9506156216316384 0.022593040299037342 4.0468650355048466 215 211 210 0.093330350149619545 111 100 113 117
5422 -2.1087579817307338 3.905225832926098 7.1500784204301278 138 128 126 0.99800253742714995 108 106 37 134 111 107
1406 -1.7818197303158905 2.2517303711418615 5.5819160493441213 113 113 114 1.3426637834474944 4 270 8 423
1561 -2.1499602487733367 3.7345521047865637 6.8347317003149302 101 90 84 0.203484181427662 5 83 11 127
1416 -1.3410330716907528 1.9678156437121035 5.8850864601323227 148 144 146 2.0758600715372002 15 595 8 485 16 625
1418 -1.9511212163661149 2.5915292152713967 5.8136607728122787 119 118 123 1.5461740198000395 4 332 8 491
1430 -2.3666348292685404 -1.0978869832587874 3.8997448744473244 155 148 142 1.6921442518650711 4 297 6 564 8 625
2663 -1.9008606032243884 2.668018173248548 5.7839173650245712 103 126 140 1.573669801702317 46 54 41 55 42 46 38 41 35 55 97 45 36 78 100 57 95 70 40 46 43 55 47 54 99 52 102 45
1434 -2.6004162199671814 -0.20527981069471829 4.4589618727743261 195 188 182 1.9501059506036715 4 52 8 46
1435 -0.77009530578233121 2.1754704651572991 5.0553412504407955 180 175 172 2.362106041600144 5 171 8 116
1645 -1.0952755394943849 3.8069560840237271 7.3721509451198326 197 186 184 0.91448372211944418 14 3 13 4
1589 -1.4960220972339358 2.5689780418827879 5.9450567114127804 140 132 129 0.73435603685482609 5 170 20 250
1444 -2.1516838789972339 -0.9120228793449644 3.7042565393587772 148 140 137 1.0340183573827959 7 568 8 623
1451 -1.6089778545163735 1.1650706830961615 5.9901263324267431 187 185 185 0.12644974024733233 10 21 14 26
2104 -1.8277392368504084 -0.93880443463758467 3.9006329324197786 114 109 105 2.0883809439250411 77 70 79 130 74 100 70 74 66 222
4239 -1.4734012291099035 1.6338758067379049 5.2912793335741908 124 120 120 1.3762087347267966 51 574 51 224 15 277 16 309 48 115 55 602
1597 -1.6101973787350465 -0.92329565203553232 9.6865958762558417 112 103 98 0.14500847814481532 8 229 11 430
1452 -2.6790139549485588 2.3213434094572696 5.7231907444754464 180 171 164 1.3979664446999418 6 10 10 15 14 28 12 102
5629 -1.7385821227158915 3.0586040671876464 6.1589504497795398 117 113 112 2.1499391725467722 57 368 111 359 112 545 106 415
1453 -2.145365570307189 -1.6623317669963857 3.6652529178119488 101 97 96 2.2552566836753303 3 40 7 29 11 24
5630 -1.536836797195487 1.9695977637145763 5.7560780053923422 95 91 88 3.1693863144547905 110 426 112 555
1454 -1.4534341101287882 1.7854450982048813 5.927334033286475 147 139 135 1.3588610174854265 4 161 13 49 9 49
5472 -1.167240034511378 1.821503958314977 5.6148661099905253 137 133 134 1.4017769531011339 111 281 112 404 113 374 110 316
1456 -2.2691594224175309 -1.6692118451298195 4.4308169086351743 251 253 255 0.36204917713907525 5 97 14 80
5475 -2.0167271185463558 4.4284262282431675 7.2740903841440119 213 204 205 1.5067292226061075 111 325 114 527
1459 -1.4705425531647642 2.0575403932827836 6.5290642432516908 150 144 144 0.4689733616497217 8 143 14 119
5476 -2.4875659436245718 4.6691334391103751 7.5545050738122725 208 198 197 3.8415108227166064 55 562 111 326
1460 0.89416816020863399 -0.95609546474711193 0.2445748267571094 131 134 142 0.045384731705334622 8 440 14 125
5480 -1.765550610755932 2.5392861902817141 5.8507802126395649 48 67 74 1.0824130479337961 57 218 106 282 111 336 105 235 114 506 60 325
1545 -5.5568272867875086 4.060474914692076 5.9401447900562854 189 179 177 2.186513958195524 11 42 12 46 13 37 14 39
1464 -1.7234216645416427 -0.54576179340862696 4.6632759479744452 199 203 206 2.315715259129385 5 279 14 140
1467 -1.5577523837620191 2.0782397625253659 6.8372238285849649 191 187 186 0.61979139851473497 10 132 14 156
1468 -2.700579473701195 3.8041124612360258 6.7871932914189426 123 113 104 0.74730548648692074 10 225 14 166
5553 -2.1970114328892589 0.00031470703151827053 4.044343396579384 211 210 209 0.87908807239078102 57 46 112 67
4102 -1.535462974679302 1.959103901720205 5.528632503944114 29 27 24 1.7369602292900239 51 43 102 79 5 57 15 120 55 60 37 90
1473 -1.570559847449909 2.9481394125157818 7.5029779414011228 177 172 169 1.3879259104272974 10 143 14 191
1474 -1.6842905489221203 3.2799390302449924 6.4814150140251421 134 123 117 2.5087900612284533 8 179 11 225
1478 -1.786513710697845 3.4891001078131523 6.6535394796492433 142 131 125 0.43778706179135479 10 353 14 267
3876 -2.2943903101905865 -1.5221957608616579 3.4569790116987327 101 97 96 1.7288754310882035 102 156 52 417 98 98
1625 -2.7930327519560105 3.8112114855397428 9.3533261382661497 215 207 205 1.4689058927773848 14 743 11 746
1480 -1.6881325777216489 -1.4971433099689617 3.8263026765494819 169 170 175 1.4911942716033877 5 238 14 272
5564 -1.6920099943970544 1.5688001045943585 7.0339652026592692 200 191 192 0.80346883037170158 60 628 112 128 114 91 113 100
5645 -1.5976271329124647 -1.6371160915928265 3.9298383532777614 151 144 147 1.5600841390947944 112 101 114 105 113 90 108 61 110 89
1629 -2.0712651742279116 3.606378234106292 6.7406006782237817 0 0 0 0.54964128244144139 6 38 14 93
1484 -2.4219059879948786 2.1878771157881789 5.659192112855516 131 120 118 1.9915831756828679 8 154 10 129 14 318
1490 -1.4926056745845122 1.7848110022183563 6.1215635776331148 157 152 149 1.4106997338415175 5 397 14 378 11 635
5507 -1.3261159295608342 1.8837944160833193 5.8320734835127501 141 135 135 1.4513815163570005 110 467 111 503 114 494
1491 -1.8939236897480722 2.2164430153602157 5.5375309713078966 55 39 36 1.5465152039051571 10 244 14 383 51 247 48 314 55 516 52 443 37 303
5508 -1.5884172794256148 2.081702615811674 5.5285510452238285 45 39 39 1.9844584372786971 52 395 55 749 111 519 51 430 112 454 114 488
1701 -1.5550753800877108 1.4741272689915055 5.1501232832150183 133 125 122 1.4700836082083166 14 369 13 382 12 711
1492 -1.8106968676714243 -1.9142917643842792 3.9877528552524666 75 66 61 1.7237638066266319 3 417 11 387 10 456
6234 -37.314977071858799 -11.327802500968193 22.060523802287644 161 156 152 0.82287925421341657 112 122 58 549
1493 -15.771981618567644 -2.9587850104951277 15.560451231373261 188 178 176 2.0764142019542309 8 271 14 428
2058 -1.9782724881499234 -1.198255353768324 4.0426769241326479 107 99 96 0.6799361558304009 79 2 73 3
1709 -1.6507635913956495 2.0116117700960681 5.3981811610159056 185 164 159 1.29586883510233 5 230 11 303 12 502
1500 -1.9444657477092917 -1.9705773890821605 4.1903616928654728 64 57 49 1.0779247004236052 10 458 14 505 12 326
1501 -1.529189408568792 1.8782029339937811 6.2467586406741713 160 155 153 1.9993705263609494 6 534 14 516 11 511
2210 -1.8957805319145531 2.4972671317040782 5.7046936790013163 79 81 86 1.584661826300815 15 493 73 195 16 583
3891 -2.9291245213429149 0.25575665146711141 5.5773869074943203 205 197 195 0.19178112905489905 41 159 42 20
1503 -14.064272659135558 -1.7287932155183199 13.55038203899068 180 169 167 1.2620284426797199 8 624 14 534
1504 -2.0431359975893835 -0.93396620216566961 3.8580968016261123 119 111 109 0.38035181442513105 10 473 14 547
1506 -1.5332885080536052 2.9315341352040458 7.0791630858535344 161 153 151 1.7919175090781541 5 305 10 433 14 579 11 679 9 513
1509 -1.3852663335301205 1.2476628421896481 5.5796671558846969 151 145 145 2.3329824146732592 10 529 14 623
1511 -8.2529333647176522 1.7947273238753909 6.8455188790548318 177 166 162 2.1300065456592021 6 164 14 665
1514 -2.0705143202521255 2.1769456618437379 5.4804005323289768 150 139 137 1.484248349952189 10 545 51 381 55 614
1515 -1.5051362199895513 2.2990623688821068 5.6164633251360927 175 167 164 0.36991349241945226 10 647 14 737
4303 -1.6063158864669516 -0.96001250703173469 4.1063447515476152 119 114 110 0.55083827724760048 40 81 44 45 50 79
5677 -2.4209076917448358 3.8106825977036904 6.9104026948854385 153 148 144 2.4210694981039511 60 332 111 328 112 381 114 667 113 253
1661 -1.5057664227948397 1.2663868561365241 6.6531966713560484 192 184 182 2.17028523280612 11 123 9 48 20 43 13 107
1516 -2.09798670661608 -1.6260165725584834 3.4596219093222365 0 0 0 1.6638750788905756 5 357 7 507 7 338
1521 -2.0610853678184751 -0.8658096733126126 3.9251201325520109 132 124 122 2.0894238411489923 10 592 14 765 12 709
1605 -1.4277979931428932 1.9638194615404991 5.6920533715364945 159 153 155 1.0299944586918308 14 713 11 493 13 535
1524 -1.4384995157823446 2.4386307217485124 5.8596461320844568 169 161 159 0.87474225994243182 11 125 13 97 12 97
1528 -1.5415364834313838 2.8763141897430993 6.9630516286019537 158 148 147 2.1141542682288335 5 396 14 394 11 503
1531 -15.613251578051216 0.29046214290179873 13.920055952491721 189 178 176 0.087575046182161206 8 281 11 328
1533 -2.4658277255327294 2.780432028477803 6.3857626348312744 71 66 62 0.31079854331094736 11 1 20 1
2114 -1.4655648004325406 1.966505653122909 5.4946863580473027 170 171 175 1.4801591395912439 16 117 74 127 3 158
1538 -6.3525358758773987 -2.6171377293668976 3.7105372924322948 53 49 48 0.22992682921377883 14 32 11 16
3005 -1.8104833878716167 3.1067872886831731 6.135058788417683 74 66 63 1.5858417893790668 48 397 45 397 44 208 99 165
1539 -2.2439670351920227 -1.8793923764471623 3.7850495730243128 175 166 161 0.9329606257633889 10 23 11 23
1542 -1.5642590558358429 2.0608761247633889 6.4282586462220115 165 159 161 1.8110157899569814 14 67 9 77 6 58 8 35 10 42
1543 -1.5096500381328233 1.3343990948209636 5.6450569473273315 149 140 138 1.8778274805514927 14 50 11 36 13 28 12 40
4983 -10.512168906711349 4.2431958351702566 5.5433734567690207 168 159 160 2.2730099871302389 60 268 114 327
1556 -2.750827416971144 -1.0194271211045034 4.7000799527062451 0 0 0 1.2738052879797033 8 44 14 135
1557 -1.5731197716906864 -1.4984203745398152 3.6489937387873566 255 253 255 1.3624909628966198 10 68 11 103 13 102 12 181 9 98
1563 -1.6870517767889781 -0.2768408080281477 4.7528869034319383 138 132 134 1.0781037093556112 10 125 11 130
1564 -1.9564247423449652 1.1651009136325727 6.349692879348801 204 199 197 0.61787197601765687 10 152 12 94 9 108
5500 -2.4669004949144595 4.9919705652694715 7.765352035040995 213 203 202 2.0933605601033007 55 622 111 469 112 379
1565 -2.0437981427694054 2.2799351291280354 5.555261351326843 72 61 57 1.3635233272023204 10 54 14 114 11 136 13 146 12 228 9 127
4985 -6.54049973600707 -1.0310381323956277 12.762021192983235 198 190 188 0.21615120800373433 60 371 110 220
1566 -2.0453323368967222 2.3172022507943297 5.4588743281482817 0 0 0 1.2819203404582085 10 195 14 186
1571 -1.4399965784344058 3.4696419854736913 7.671742227642004 212 203 198 1.7542999863686128 11 177 13 200 12 127 9 126 20 183 14 158
3277 -1.2902908919615024 1.8526100313041216 5.8369875658548658 100 96 93 0.87369795672995176 47 652 51 602 52 553
1576 -1.550641716173053 4.3616809364673355 8.0285691083387736 215 206 201 2.2243662449878832 6 332 11 227
2907 -2.3558733142838117 2.4999318591456894 5.7901834562383696 179 184 188 1.8255368646353518 47 174 44 138 45 132 42 106 40 125 102 92 99 111 97 116 36 134 41 143 33 109
1579 -14.344969507544286 1.1522008416232778 12.361723604280378 180 169 167 0.3981298830915011 8 223 11 259
1581 -10.767860026947552 3.0939550115562815 8.2285571192159228 191 183 180 1.5297914984576997 14 234 13 593 11 284
1583 -1.2246710307877071 -0.94371352388409468 9.0628020295168774 119 108 104 1.6003136457438272 8 157 11 296
1586 -1.292932740935564 1.790140551727065 5.5161486985397685 194 188 190 1.641098035402365 11 304 20 248 12 230
2989 -1.2043888770489388 4.1808118876770717 5.8981635980179323 168 160 158 1.0367369837626235 46 905 48 408 44 570
1587 -1.9230000195111996 2.3282030586167131 5.6329424899099312 106 101 98 0.840748023774465 8 316 11 305 13 530
2558 -1.5197663539672723 2.408371545678853 5.8811933907549792 130 132 129 1.1566710153115491 48 133 47 175 44 175 45 167 10 223 52 155 99 140 106 284 112 389
7385 0.87210258864394596 -2.1044684218579817 5.3100340954491134 232 235 242 1.1257396462879847 64 9 62 11
1599 -1.3418339656322977 1.7965790854205723 5.4595738261246654 133 129 127 1.4179893450896783 8 427 14 504 11 438 13 407
1606 -1.4748470995861387 2.0159181561314639 5.9014210497241173 160 155 159 1.3741938547294954 14 715 11 494 13 537
1608 -1.4582392473887407 2.5821978991011512 7.0021887297342813 163 155 153 1.516554200350388 5 299 14 646 11 499
1614 -1.8500517524004421 1.6585582650699779 5.1165319601972987 52 48 47 1.9072662559561773 5 286 11 619 102 271
1615 -1.4933737755587912 1.7238313089504531 5.3287569293144337 110 109 108 2.5262541594877965 5 393 11 629 20 675 12 454 21 388
4467 -2.2821455507254016 -0.59745421638197183 3.9770942099133362 170 164 164 1.2196946067332299 42 142 35 98
1618 -1.1126040683155682 1.8265936491192061 5.9756678128833993 207 199 196 1.8020194000722465 14 725 12 438
