# 3D point list with one line of data per point:
#   POINT3D_ID, X, Y, Z, R, G, B, ERROR, TRACK[] as (IMAGE_ID, POINT2D_IDX)
# Number of points: 389, mean track length: 4.1955271565495211
1382 -1.2055362342420906 2.1082251519020803 9.6987123961563313 175 174 179 0.49760403600809683 4 137 15 145 5 136
1899 1.8824487492305704 0.15377697698730058 10.628065615119114 208 59 86 1.1205416860093964 23 384 29 233
154 -1.0215628137830046 2.8136617385984457 9.9231631002311502 52 133 160 1.2710807365793777 13 251 24 312 29 358
284 -0.47529822377042769 2.3294491226323677 9.3150002383015273 155 158 163 0.8999075891714815 13 275 24 413 9 279 8 315 11 220 3 194 4 163 6 173
1167 -14.559399999792429 -13.212348301074661 24.388557173829373 88 87 83 1.0271134210433481 23 159 18 224 28 196 27 203
2243 -6.0445731169432619 -2.5188526279167602 18.943620483245255 104 62 74 1.5375950464501078 25 296 22 289 44 183 27 340
1280 1.2808989922407195 -0.49341269698193591 6.066522306553793 60 45 50 2.2460474111331976 8 125 28 315
155 -1.5697844449064549 3.0784275535093233 10.766132263666064 50 61 65 1.1829029637029707 13 283 24 313 16 361 14 372 18 438
156 0.72026165032739975 3.5886904681348746 10.035351849125055 62 72 74 1.6810615041578696 13 209 24 316 9 346 16 302 14 204 8 314 29 249
877 -0.57391513709342423 3.5781096838134698 10.09375535126204 49 60 66 0.34660362390769167 23 509 11 391
158 1.3718868021638932 5.0633344694821565 8.393965239005988 45 58 58 1.4142986703316038 23 337 24 322 9 285 14 445 16 419
292 -0.8638159558981755 2.1907770040012626 9.461676027229176 161 158 167 1.5864971054178181 24 375 9 312 23 604 14 363 16 551 11 218 3 218 18 347 15 632 10 533 6 516 5 417 13 622 2 115 7 185 29 360
1111 -11.824085465759319 -7.0161397353962762 21.104399236256256 23 33 32 1.9968275602608354 23 25 24 26 18 28
2002 -0.66778548206529154 0.28909922006686178 16.320172874789719 241 137 158 0.99384573538150489 29 419 30 412
163 -0.59475044516058972 -0.11580093389666939 8.6899706678277049 183 202 200 1.4768189266434189 13 365 24 357 11 277
2010 -27.094852326521359 0.12372363607944517 28.246065506494567 238 83 127 2.0002197444144776 29 200 19 214
171 -0.43888966722768175 2.959741848921607 9.5985791333944217 117 181 198 1.5372926908170412 13 653 23 331 24 379 9 343 16 360 14 314 8 310 11 224 3 154 3 257 12 317 18 273 28 271 4 280 15 650 10 436 6 379 1 162 1 235 2 128 2 192
173 -1.0033332181709251 -0.099741838704519248 8.686899695498111 198 216 222 2.2541118420894035 13 367 16 355 11 365 7 244 6 490
174 -0.63094830894821707 0.97901647138875869 8.6371306101215168 108 187 212 0.95941850835100873 13 331 24 399 14 353 16 539 3 188 12 233 4 215 15 228 10 205 5 159
175 -1.0896586992992103 1.2006920022827592 9.0890749800192854 136 165 181 1.533210937861724 13 583 14 605 3 216 12 381 4 306 15 299 10 397 5 202
1795 -2.0318302355851379 2.0584691709481016 11.64483506248488 0 0 0 2.1536637982443918 12 12 14 19
178 -4.9093717162033217 2.5611099566121243 11.271369027780406 88 82 86 1.3749719824314544 13 490 23 594 24 406 9 313 14 422 18 398 28 328 30 282 29 256 25 383
182 -0.058319059693419099 3.7971120243771335 10.088928289502821 61 72 76 0.3950626833066414 13 345 24 442 9 347 14 250
296 -1.0557026323212075 2.2044513228974045 9.7473541189411872 188 177 185 0.47589417448146182 13 342 9 318 16 317
183 -2.7089322215704938 -0.67919784997379862 9.6078277426598433 219 78 112 1.2890882181686338 13 115 24 450
1173 -8.4454385400338605 -4.7117558502609915 17.684607030765896 61 73 73 0.1198546861370396 8 148 16 167 18 263
306 -0.55039643332663934 0.7577523120236116 8.5941239548853208 201 228 238 0.90952460977954352 23 466 8 343
316 -0.33816990733972468 3.6840600274684516 10.105475638264174 78 88 87 1.7063437982740703 23 486 24 500 16 647 8 395 28 377 10 453 6 429 29 425
1199 -0.10318437721225913 -2.5457538627321767 19.826395069331785 207 77 116 0.70564577011624097 23 444 24 472 28 419
2275 -25.818412280767365 -8.5702992913006533 22.930019637855644 50 69 75 2.2506852047734887 25 210 44 70
1312 -1.3024481290785213 2.1147662679220396 9.7622621614570981 158 159 165 1.1427486554650732 13 339 4 138 15 139 10 182 6 151 5 101
187 -1.2752057951773537 1.9811673166717896 10.195131203355665 134 162 174 1.0471378547859471 24 482 9 369 15 265 10 183 6 172 5 165
189 -4.497995728413315 2.829275741206454 11.143695110310574 167 63 86 1.3026528184358397 13 419 24 487 14 312 18 348
1163 -6.8711696403108595 1.3227281030996245 15.65114586084761 41 52 57 1.5692800959980289 23 204 28 306
191 -1.0036564647957307 2.8957122821417336 9.9065829414285869 130 203 226 0.80260455304288647 13 494 23 640 24 489 14 562 11 383 15 666 10 564 6 528 5 280
1292 -0.26417488038405101 3.4014207876390965 9.973455247915302 163 172 169 1.9477774394899106 3 18 12 21 4 28 15 29 10 18 6 19 5 23 1 21 2 19
193 -0.36118084571789438 3.0015760233362654 9.432478044716385 148 174 175 0.83810220855732709 23 667 24 493 18 459
1573 -1.5296375236784197 2.2451665731037678 10.097802854871006 124 182 204 1.8620402614268139 15 285 6 265 5 297 1 207
199 0.074141619882119078 -1.2316321972989688 8.2620145516529107 188 170 155 1.1681168253243408 13 699 8 284 12 386
1364 2.5877073861878301 3.1501155551135223 11.315609605353547 53 64 68 1.2929253994799434 4 53 15 67 10 50 6 61 5 46
1582 -1.5931877254752871 2.3907936483386134 10.516168142068969 53 130 152 0.29554363258571043 10 223 15 168 6 303 5 139
200 -0.87591187570926976 1.9418311930071261 9.2834252269557034 142 171 187 1.8276353294233338 13 393 24 627 7 208 15 231 10 316
857 -0.923794471081131 2.2806810152311674 9.8960793413003021 187 188 193 0.89281088924741903 11 372 15 148 5 423
332 0.50208073392870434 1.9973553211105621 10.042484890184994 104 82 89 1.6457161435365442 24 373 9 337 8 357 16 806
1279 0.86451683390217871 -0.66049096503752824 2.6028903312225156 64 66 65 0.42669838429799467 18 8 28 280
1392 -1.2304242463822783 2.0055169543088502 9.628678076739833 144 129 132 1.7425772182647716 23 593 15 234 5 167
203 -0.95279539382789347 1.7045000730470043 9.263633307811844 170 208 219 1.7648521441004401 13 703 24 649 9 403 8 322 18 396 28 347 2 217 12 313
204 -0.88965653321244098 1.7467196259393976 9.2531581186508536 167 201 211 0.95245629166531387 13 600 16 808 3 388 12 724 4 265 2 191
1265 -9.523327012896452 -4.0691833938938196 16.34516933572408 41 89 101 1.6891720734113815 23 373 19 299 27 385 22 326
205 -1.7901713052829982 2.2338576736858284 10.679199505717206 69 128 156 1.7243707591197199 13 714 24 652 16 727 14 627 23 404
206 -0.87338557786892324 2.0748070391159081 9.5439478661961967 136 164 178 0.98518547790202504 24 654 9 404 1 273 10 622 2 254 12 408
340 -0.43655869483148091 0.48894472812832096 8.2714252530601726 177 201 211 1.215866898029158 24 158 9 155 16 132 12 64 15 73 5 51
1223 -12.145376250019513 -1.0355811904946275 18.684805670727844 5 9 12 0.075537725186338972 18 55 29 64
1400 -1.2209920354798491 1.7826479039595335 9.818322503400891 156 186 196 1.3943749539622907 13 604 15 294 10 317
211 -0.81467781230098335 2.8289742795275745 9.7465960962096698 56 119 152 1.4085577464522232 13 715 24 672 9 427 12 316 10 560 15 491 6 525 1 265
933 1.7256807127792593 5.4796322760074938 7.9873985588129752 129 84 47 0.31857169485463821 11 420 7 285 12 444
214 -0.56242580192951197 3.5602453224392283 9.9941084267330247 20 32 32 1.1127973944967755 13 679 24 693 18 214
1571 -1.2416139549340752 1.3973336735661175 9.4011405778320754 89 135 150 0.97638516656013952 10 404 15 574 6 259
338 0.63431825926024255 0.19394736745677302 8.8934970029649651 54 60 65 2.1076091388622857 13 118 16 61 16 102 14 127 11 80 3 74
1454 -0.95180548440410717 -0.15031961772389432 8.8814098676175082 241 254 254 2.0599546939656954 13 449 15 1067 10 715
217 -0.39509676187162274 -1.6467045417120518 7.9842069279887316 251 255 254 1.4901657436835822 13 13 24 15 9 19 16 16 14 15 8 13 11 14 7 10 3 13 12 11 4 4 15 8 10 7 6 6 5 4 1 7 2 7
1963 -16.738581766285332 -5.3646283784907522 19.242907382313664 40 44 43 0.764859774451911 29 124 30 114 19 119 27 121 25 140 22 111
218 -1.423176424268594 -0.32099395488786808 9.3000399789302826 188 212 224 1.7450212988225544 13 36 24 70 9 87 16 82 14 32 8 68 11 51 7 31 3 30 28 316 2 24
1873 -1.5639837897793047 0.76042285851008873 9.8108927363734324 175 202 220 1.1984686270153655 23 386 29 103
1216 -18.957392109880157 -28.650989117970614 48.690002482867143 17 23 23 1.7648011818896301 18 12 23 19 28 8 9 18 24 25 29 11
220 2.3943507004748317 1.9817905566570297 12.814688433146966 189 63 91 1.4639540703229761 13 82 24 125 9 116 16 137 14 100 8 146 11 76 7 64 3 67 12 66 2 50 1 81
222 2.2753591667245598 5.1021482542308485 8.878948145275988 129 82 55 0.30446654719954364 23 135 24 163 9 144
225 1.7523648351064172 4.8102401633329412 8.6129123742504792 23 29 27 0.96539117820829801 23 133 24 289 9 171 13 177 16 220 14 208 7 169 3 159 12 189 2 97
1398 -1.7210010187353104 2.3131474886645904 10.495425750397004 82 140 164 0.47658562540063476 4 273 15 282 6 268 5 211
286 -0.41232744918149716 3.0155023084153179 9.5605316458951801 114 138 150 1.6746672222954251 23 366 24 380 9 282 16 359 14 373 8 350 11 225 3 208 12 282 13 655 18 424 28 358 4 284 15 659 12 411 10 447 6 387 5 433
1161 -0.43752614047229926 0.44519169713458667 8.2590653687614477 175 201 204 1.6767147066269814 23 244 18 200 28 177
1267 -1.4911384403577324 1.8674679976344311 10.01488744580838 130 145 152 2.6657026821829879 23 318 28 354 30 301
280 -1.1724093001385816 1.9113989927446695 9.4849474001828309 177 185 196 1.1515373766934431 23 296 24 370 9 270 15 614 10 658
231 -0.64551331452209681 0.14445546342334575 9.3985674519014584 202 222 228 1.4659180387664186 13 561 14 593 4 299 7 467 2 243
1396 -0.61317641339860818 2.2900759959479746 9.3830124213348167 146 136 139 0.59700133478722872 23 327 15 266 10 203 5 154
1221 2.0296624423633096 2.5217328734907478 11.798348797124051 18 21 23 0.093313545795810138 29 59 19 48
354 -0.54477068833439835 -0.75516670008931597 3.4831121024623108 153 156 149 1.5355370092976499 24 36 16 22
233 -0.486716574094613 -0.8150464445029032 8.4257787129785875 239 252 245 1.0433435975873386 13 2 9 4 16 2 14 3 8 2 11 2
1915 0.51596726695675366 1.8288812689159075 9.7748683325016668 67 60 67 1.7456139294108188 28 251 29 310
234 -0.11817494746504401 3.1692554953950571 10.215466836165973 171 182 178 1.4342714679800381 23 9 16 9 14 11 11 7
358 -7.2443483613539792 -2.04408351906467 18.639013656103806 13 16 15 1.9416441990473849 23 65 16 29 8 46 11 31 18 65 28 73
1169 -4.4437861143782778 2.6037112434985148 9.98871660012286 192 72 100 0.55614398823146227 14 71 18 247
2261 0.038082013971872816 2.5146350932608299 11.418255627763344 0 0 0 0.55079076982343889 27 9 30 21
1290 2.2035981709992258 -2.0629471725898387 18.776593958907668 0 0 0 3.5286103513261877 13 46 16 24
237 -1.4099605749629331 2.0958598976797069 10.062065509790825 170 183 191 1.3513942758496322 23 78 24 56 9 48 8 29 29 309
238 2.1668216207231805 3.2210525366042968 10.726924249378524 26 28 25 2.0698271242790751 23 52 9 52 16 70 14 70 11 62 3 59 13 69
239 1.9275612190387665 5.2022168547916943 8.2854831860015548 141 101 66 0.92060394157010239 13 61 24 78 9 81 16 111 14 75 8 76 12 72 1 72
1404 -1.2302375755981261 0.57748083469623235 8.9487004040497151 127 185 214 0.56270148588608937 4 234 13 567 15 315 10 339 3 316 6 240 1 223
244 -0.33836240821676283 -0.13870098026889313 7.8205448180487886 234 253 251 2.1867770054498541 24 154 9 111 16 129 28 182
837 -0.77244819335126169 0.026913052105761167 8.7696022119588068 154 175 176 0.46014857415070909 9 272 4 196
246 1.3108795267160713 2.4120366862417266 12.054561947478941 29 33 34 1.5281446658275586 13 98 9 121 8 160 7 88 24 135
2304 -0.6939726136757165 -1.2088982217704587 8.5481068523778845 169 181 175 2.6078569066860187 25 47 44 33
1219 0.7227874216347181 0.55361246407760922 9.0545149403315328 44 59 66 2.6282766926059398 28 28 14 25 30 19
360 1.3117530989395283 5.646560133898511 7.6349564182038003 168 124 89 0.64571223914571718 13 24 16 32 8 28 11 28
247 2.4617635790261936 3.1358220658893479 11.291789527753822 50 62 62 1.8351833441594569 13 160 24 77 9 122 16 110 14 141 8 99 11 63 7 96 3 84 12 69 2 67
1348 0.77688667289354696 0.51840185431947616 10.927826831670037 0 0 0 1.086987239458427 3 11 16 59
248 2.1699215785232653 3.4785791896125966 10.782690149214485 52 63 65 1.7841496371156849 23 128 9 123 14 103 28 138
841 0.25101540430308317 -0.41333584183813804 6.7865580625106388 130 91 101 1.9618187234625819 14 83 11 252
1237 0.011708396006345207 -1.1907289163629813 8.2733360681409387 155 166 158 0.9597868140529614 28 103 29 176
370 -6.4666572006949377 -3.3732414322710835 18.337166554323517 36 42 42 2.1746492374264177 9 44 23 43 24 45 16 46 14 38 8 42 18 42 11 36
1867 -5.3905366179085767 0.11001598408200944 10.605541148176266 125 71 85 0.84179590931866866 23 253 29 66
250 1.5803190791860928 4.8821798316603253 8.4012759330682023 25 31 31 1.2154456227238088 13 257 23 134 24 185 9 128 16 186
252 1.6579776356549596 5.9065748350219618 8.4704179792470136 147 103 68 1.6422980884984018 13 135 9 133 14 155
845 -0.74172511071190594 2.0742245592093402 9.5274189180089355 134 165 173 1.036545224103776 13 707 24 484 11 280
257 -1.5344382073394516 2.386122737522625 10.304841428744782 62 131 164 0.85894988279102358 23 181 9 160 18 246 28 298 29 325
1335 -0.071514554267462213 -1.5515144051907042 9.431022487021913 0 0 0 1.3146778010156603 23 548 24 619
654 -0.55663719054922689 0.14823228477966297 9.830246028641481 192 214 222 0.99290445946848893 14 287 4 197 13 314
1714 -0.84779685999110965 2.0040580532372263 9.5458550283126424 137 167 177 0.092194448995015291 4 267 5 485 1 275
259 -0.38131314361080476 2.8191076873713596 9.4874594304989888 165 185 196 0.86849116858878972 13 164 9 164 16 143 14 197 24 314 11 152 7 81 3 132 12 131 4 113 15 170 10 190 6 93 6 266 5 103 1 108 2 126
260 -3.6924686660834403 3.1873406561685345 10.409905649030335 142 71 90 1.1523036358963732 23 141 24 178 9 167 16 146 14 148 8 165 11 112 7 82 13 102 3 81 12 83 18 211 28 211 4 67 15 107 10 94 6 89 5 65 1 87 2 59 29 162 30 188 19 107 27 152 25 192 44 108
1207 -12.329146894819582 -17.159900818065825 39.696388626411782 118 119 113 1.4185381741843148 9 3 24 1 28 4
261 -1.9465495493955229 0.21286188907920509 4.3881963128162802 136 124 128 1.4353357472605994 24 354 9 173
692 -3.1703769065191829 3.2200874355649427 10.474971683512312 108 104 111 0.79111100014503422 13 498 24 492 14 563 9 342 28 440
262 2.2942475109094476 5.2773276392291795 8.426270732700905 149 100 68 0.60416491294990315 13 179 9 176 8 175 12 140
1201 -0.72460927889961535 0.82892043104420099 8.622031834603785 59 122 136 1.2377410987006514 13 225 23 305 14 292 3 147 12 167 7 176 18 276 8 325 24 297 28 275 4 122 15 186 10 164 6 162 5 308 29 330
642 -5.8041158979290159 1.1198446085193017 13.380152287821407 121 66 82 0.94886625713140527 9 258 16 196 8 299 11 178 18 248 28 243 23 268 29 266 24 300 30 280 27 275
1299 -0.045574477862597572 -1.7382896456849291 8.1594712663817663 0 0 0 2.3660082498800055 3 97 23 85
263 1.935461186728237 5.2522712340150468 8.0876177798475908 121 75 41 1.203011918940438 13 133 24 191 9 179 14 153 8 133
1251 -2.6796238811890816 -3.2401160595585887 5.6138019523310794 19 37 47 1.0835377386553469 18 240 28 167
264 -1.1583582708820577 -0.29179278390506846 3.2276293565933751 65 75 75 1.9510382458081588 24 146 9 181
268 -1.3057965519197294 0.53697818131379427 9.1120225404716528 95 156 175 1.4665578285725058 13 49 24 159 9 207 23 186 16 103 14 66 8 95 7 57 3 62 12 51 18 296 15 50 10 43 6 40 5 30 4 55 1 50 2 48
269 -0.58449483699926041 1.5510693210169031 4.1232628423929594 87 74 84 1.8068391544064593 24 136 9 210
700 -1.313199270860075 0.63624682324881709 9.1364406783075385 70 136 158 0.79197662999940144 13 574 14 597 3 293 4 202 15 309 10 198 6 203 5 309 1 178
271 -1.0712660601542565 1.9008671176211722 9.3999824629008177 137 167 178 1.5184346446768611 23 285 9 216 24 237 16 254 14 193 8 239 11 180
1259 -12.208891284148162 -5.2147813782750561 18.214518134145262 150 46 81 2.1690001413528353 18 115 29 185 19 73
640 3.1762936904079355 0.091878216477280006 15.412621862528075 113 75 88 0.50716774262537467 9 249 13 166 14 233 7 118 16 197 3 103
276 -1.3984904450157227 -0.47187639723196939 3.4366514984908831 246 255 255 2.026251183995984 24 110 9 238
1159 -8.5928228854072319 -1.5260536129821161 17.111886301164034 22 16 20 0.91892866211353397 8 228 18 191
644 -1.1594996389275605 2.0012994096023409 9.8152371295352729 168 189 199 1.0777183975106925 9 263 13 233 14 245
277 2.6379404654176026 1.8138511116468938 13.274287509423328 64 53 57 1.2174056727635112 13 151 9 252 16 252 14 190 8 236 7 113
278 -1.2165217156768713 2.5578192925698953 9.9916749545427059 49 134 158 1.0532204870461528 23 414 24 306 9 254 16 258 14 235 7 143
1153 -10.057057892215642 -5.3410393075163887 18.5100674353092 67 71 72 1.8127841309914361 23 150 18 163 28 173
281 -1.5448505378417541 1.7262884793715083 10.155824942292892 142 168 176 0.96732695264076707 13 334 14 361 1 149
652 0.069095761286863941 -0.21668648172076638 8.9874874586206062 164 183 179 0.40530030031623132 13 217 14 285
666 -1.2659687000414077 3.3178212384806938 10.83385516242209 176 190 193 0.58888796494872908 7 198 15 272
1387 -0.80613634889311625 0.98192162866189481 8.7309329054826232 129 183 212 0.5919933457445713 12 236 23 313 15 192 10 178 6 142
287 2.1373321038304725 4.5073698984075579 8.8560801938635318 22 27 30 1.1955376661940293 23 278 24 319 9 284 13 204 16 300 14 266
289 -1.4265125912723271 3.2426742731260925 10.735880319503545 57 70 78 1.8278188768916235 24 677 16 363 13 421 9 295
1157 -8.9287203459645639 -5.7259119778844028 19.526288944292901 31 40 38 1.6296729128109446 8 332 29 186 30 162 19 122 27 133 25 104 22 98
290 -0.70960584678008409 0.2935727453533345 8.8022546894002254 187 205 215 2.3068534372416556 13 223 9 307 16 198 14 183 24 638 8 328 11 248 7 191
291 -1.2277364718526504 1.8481038511963126 9.4312718242248366 179 186 199 1.0830220194519922 23 319 9 310 15 609 5 393 4 335
596 0.65633310614231477 0.49615184296685338 8.7075205365596915 63 64 69 1.6138523959340956 13 79 23 79 14 92
293 -4.412573988114838 2.6343716913685742 11.174400115272205 113 71 83 1.4305892991520812 13 163 23 596 24 485 9 314 16 314 14 425 8 259 7 99 3 106 18 351 28 348 27 350 30 283
674 -1.2310337755268765 0.7190106810341208 9.023961987641103 81 144 168 0.64668136879661975 13 457 14 412 7 329 15 308 4 325 10 331 6 247 5 157
1331 -1.0249637957935662 2.7414669789274564 9.9146787925832811 79 161 182 0.56583527531014277 3 253 12 315 16 618 4 278 15 490 10 440 6 384 5 205
295 -1.6796355522006705 2.1843799070726724 10.622502380048829 51 114 142 0.43727633090709062 23 320 24 366 9 317 8 355
297 -1.0216183389589082 3.3127761355539027 10.11084070571871 174 188 193 0.01401723205546967 23 653 9 321
1999 1.2084272875162625 2.1437105640281895 12.542582039772439 80 89 96 1.546912934601528 29 359 30 357 27 427 25 357
604 3.4612366424628513 1.9070629319327177 15.14521838113769 182 79 101 0.32371233512707165 9 387 14 129
301 -0.91397427051228286 2.9917651962109302 9.811678450990172 150 179 192 1.262262032544843 13 165 9 331 11 188 7 146
1992 0.13885820871432877 3.8684382895083647 10.588776783277575 57 64 70 2.1913187798350955 29 335 30 293 19 303
302 -1.3224737548173655 1.9364495289510972 9.7696221769789133 157 153 168 0.77070036910789574 23 400 24 481 9 336 16 730 13 394
1113 -0.14491082757378551 -0.76147827700591164 8.1043156137639905 146 153 146 0.1047666583231526 8 43 7 72
672 0.80849750134225384 2.2375092136205312 12.107209370558325 74 33 49 1.2553693614993295 14 408 28 154 29 165 30 238 27 195
305 -0.65756997960819241 -0.10935359625564298 8.2686777859001044 221 232 228 1.4026011079025917 24 451 9 381 3 175 6 480 2 152
1698 -0.96116120504129454 1.9954935049131666 9.5160288697137769 118 149 158 0.85509280126019038 10 660 5 399 6 508 15 616
1191 -0.99755149933717258 -0.24371462558823537 8.41396786127852 193 214 223 1.3607707393331634 23 459 18 387 29 423
311 -0.17521520553356537 3.7777054321160777 10.669236577322566 10 15 18 0.45083444626260871 13 502 9 392
313 -0.022637917101003747 -1.2963106491543517 8.2181674382393073 183 176 163 1.3227519798562715 13 716 9 398 16 528 11 359
680 -2.6176987266304033 3.8539309897047054 9.0399343715021008 65 75 82 1.9321238395181755 13 511 23 434 14 438
314 0.19707480425754323 -0.30110722038402543 8.7946142056777976 114 123 125 1.6102541828571084 23 442 24 632 9 399 14 276
1327 -1.4300625111704603 2.5174255240732308 10.342597267167115 49 124 153 1.512044185531227 13 639 14 546 4 258
646 -0.68821950695341694 2.8026145760362424 9.8171907485450003 72 148 164 1.905861414370122 13 253 14 254 8 261 2 105
1706 0.84564975130231823 1.1791027387001587 9.4658822730541292 137 87 112 1.0623490409722138 10 706 5 454 15 556 1 57
315 -0.73690447470434095 2.8413932543217011 9.7550714093718245 139 210 235 0.92185959108174409 23 500 24 490 9 430 14 406 8 382 11 292 12 284 4 255 15 488 10 438 6 382
1243 -9.7722082513984425 -1.0908676885530453 15.175938089702726 156 163 171 1.3853755498477502 18 126 28 148 29 197 19 125 30 127 27 189 25 186 22 157
320 -1.7903748087678617 2.3634891295357132 10.512042976889221 111 153 178 0.54456172726482754 13 635 9 462 16 721 14 638
321 -4.878812791482269 -2.5671149490128138 14.970367971403894 16 18 15 0.81347397160780865 24 0 16 0
322 -7.5619680461266876 -1.5601556991570269 16.582751584782002 7 11 10 1.6823249097968065 23 21 24 18 16 18 8 15 18 21 28 24
1778 -0.81921578713919097 3.040962598239469 9.786137820982459 138 177 186 0.76846262046354696 7 199 14 315 12 133 1 113 15 243 6 274 5 140
323 0.74663738206067465 0.78673144843559151 8.2374174766164732 52 67 72 2.5008528485902866 24 19 16 19 11 15
324 0.48841781878955376 -0.11033755087226535 6.8135222263867385 46 56 62 0.17389431996556443 24 29 16 6
1271 -4.7323199025178795 2.6994416241480566 11.46260185827728 107 71 81 0.46233094926611212 18 400 28 455
325 -6.2171607294199855 -2.6484913726322961 18.531598270644139 15 17 16 1.0486953179205218 13 29 24 47 9 34 23 41 16 48 14 28 8 32 11 32 18 40
756 0.17782852233647237 -2.7308846172308536 19.122380622018088 122 84 66 0.75290048505319362 23 194 8 224
328 -4.9112992768362913 -1.8094160713829874 17.831276920708078 128 62 80 0.56159381753412163 13 111 9 168 16 171 8 151
329 1.2723076406836791 2.3093559669542012 12.345918237110011 100 70 82 1.1942803656806229 23 217 24 244 9 209 16 194 13 230 14 192 7 139 3 122 29 250 19 134 27 196 44 135
760 -3.0085496710311133 0.37099630895942221 8.7445123880904081 114 80 95 2.0723084275528572 16 240 8 231
330 -5.9485256631563344 -2.4850629299080178 18.748569460253442 113 72 82 1.5022547356210407 13 305 24 343 9 268 23 262 16 286 8 285 14 284 11 209 7 172 18 290
1786 -3.4584739946369583 4.0512160576083378 8.9542185067586004 38 49 51 3.0164711911637294 14 472 1 255
331 -6.325987000753841 1.0488258480661059 13.391479354008785 127 63 81 0.65988559622370857 23 225 24 298 9 290 18 250 28 242 30 279 19 235 27 273
335 0.0089588118226905291 -1.3591818955427457 8.3794673772884618 97 79 65 1.2436898214947352 23 445 9 421 18 385
545 2.0281918643652435 4.5973074457184504 8.8900231754136616 56 66 68 0.41133428134766042 24 424 16 796
336 -1.2662960431577206 -1.6306153761431554 9.7637326677384877 161 170 169 1.0210508519303527 23 353 9 423
704 -1.0477880831188486 1.2090571984349054 9.0675082102474196 149 199 208 1.2914796597585543 23 362 14 604 3 301 12 382 18 488
1062 1.3539328388506227 5.0445377096863915 8.2126309272104638 24 30 30 0.14121780588269123 3 162 12 190
1730 -0.80812072062257689 -1.3082908500965489 8.8654301699757614 254 255 255 0.82037445752380778 3 44 12 40 2 35
339 -1.9865816698391496 -0.036883276525262632 11.8797258687406 189 205 218 1.9968095198785869 13 11 9 86
341 -1.1300054777947048 -0.52322151391094407 8.5799272497138954 151 75 88 1.7256622364498941 13 93 23 81 16 127 14 96 12 118
342 2.0251390970319463 4.6578280617077352 8.8701491338572591 15 20 24 1.9094192099021883 23 176 24 184 16 265 14 328 13 254 8 249 7 161 3 156 12 199 9 170
343 2.2184982140516523 5.4324347816986105 8.4047468670643593 146 97 65 2.1430849807528674 13 106 9 194 14 120 8 134 24 130
1060 -1.1485096906508721 0.60697546517617484 8.8836043168592322 71 148 161 0.47623475730388676 13 319 12 166 14 342 4 166 15 179 3 178
344 -1.9842835947414159 0.69555558153670183 9.6479478238304459 0 0 0 2.4053579209561562 13 149 24 331
349 -12.758967002114977 -12.215305915209621 29.074705243552668 12 14 11 1.3236438334398584 9 10 23 10 16 10 24 6 8 9
350 -3.3914863034499909 3.3946241262693913 10.247793639851276 50 60 62 0.47769478545414212 13 5 14 12
1225 0.29540570924490145 -0.68208237975729491 8.4752806135363503 47 59 57 0.030351421959910772 8 91 18 195
656 -1.3300872188458401 1.7671703553481175 9.7816209728904848 155 173 185 1.5065770298189693 13 336 24 403 14 298 23 317 15 132 10 128 6 106 5 131
660 -2.0532703542223607 3.3681055108998379 10.348567629408798 82 93 97 1.0307227504572183 13 191 14 319 8 263 4 188 15 262 5 200
357 -0.21368412253547747 0.36764393565406633 1.4684665373165875 42 59 66 0.67535275768193848 24 13 16 28
359 -9.363559715409874 -6.6586255749358827 21.326001282362157 12 17 13 1.5374062031396145 9 66 23 62 24 50 16 31 8 36 18 74 28 61 30 72 19 53 25 61 22 68
1690 -4.2563489019957839 2.9347566635923328 10.783015992613937 192 90 103 0.25336058128482225 15 784 5 348 10 577
363 -7.7798424032911333 -4.9912587117229599 18.663713840505405 55 60 60 1.3866676268763611 9 38 24 41 16 38 8 22 11 24
364 -4.5947696972258321 -5.1846109478384026 20.166992947762338 126 78 55 1.6464212612682259 23 96 24 92 7 20 3 24
1183 -10.6022720801683 -11.957978682006027 21.268636454679786 64 65 57 1.3529458868001154 24 349 18 325 9 298 23 343 28 353
366 -6.8750709247274298 -3.04125283935424 16.013446036755415 35 41 41 1.5105593153711929 9 69 24 67 16 41
1177 -9.7769620602574054 -11.352640190823434 19.764229943022826 66 67 59 0.95682959891975605 23 342 24 347 18 278 9 361 30 344
1227 -0.46554358409335078 0.35569157504244742 8.3682076276316941 239 255 255 0.64970700046967322 18 106 28 58
368 -10.212908399976614 -8.0185325330020216 23.144665151651498 51 50 45 1.7067018928819222 9 65 16 43 8 35 11 44 18 73 24 66 28 46
369 -9.6514790111608946 -5.20463769063507 18.901976303397237 33 37 38 1.1725149425664285 9 75 23 87 24 90 16 45 18 92
1762 -0.3369456951945472 -0.077043926158063422 8.3606286932023703 223 243 242 1.5963709654733806 10 523 1 239
371 -7.7500108056886603 -1.4151762944943111 19.251654369866142 45 55 64 1.1921894671911719 23 38 24 35 11 52
372 -0.73594990783912817 2.1295528230009442 9.2657040385907994 160 184 193 1.1960477190151777 23 220 16 52 24 245
1770 0.10744493884571538 0.54728284933511906 9.3398209611022995 189 217 222 3.7483610033829828 15 553 1 283
379 -11.753549938323996 -8.1483609338156331 22.926782637628289 12 17 13 0.9100254646921544 23 59 24 79 16 75 18 94 29 80 30 71 28 82
380 -9.7262727711270731 -6.4773666881373781 20.267386793964057 31 43 41 0.4032477963643053 9 74 16 76
381 -5.6870227677191103 -4.6485663908075905 21.742944036036967 42 54 60 1.6135605408730018 9 108 13 35 16 78 14 56 11 70 7 48
748 0.74585300095338891 3.8162088997637773 10.797621347980687 63 72 77 1.6181327192800419 9 143 23 130 28 257 29 225
382 -6.0516069205118264 -2.0512428058917482 18.183915692757797 254 123 155 0.95637911722044655 23 76 24 69 16 80 14 63 13 51 8 67 11 67 18 95
1257 0.77050384550927042 2.1335261231174139 10.828376332124638 0 0 0 0.30727800937026456 8 240 9 218
383 0.085336936624938006 0.068913569037939021 8.6271717476086316 165 188 196 1.5384112770252765 13 75 16 83 14 91 11 81 7 63 8 69 4 77 15 96 10 90 6 83 5 66 1 67
1438 -1.1431231473934855 1.528671447692969 9.3170154232317284 103 146 155 1.4821690975479473 13 591 15 579 1 282
519 -0.74667807663321162 2.9559689264701525 9.2965767637918351 53 141 155 2.2635395455959695 16 628 14 316 10 151 6 156 1 192 13 284
533 -0.68260789977053138 2.2752624234668324 9.4113062017714224 135 133 138 1.1977968419069498 16 719 14 635 15 473 23 609 10 371 5 216
388 -10.797249748316384 -9.5136759674487781 21.651098828588268 78 77 75 1.000058937955008 9 96 23 102 24 107 16 95 8 83 18 118 28 112 29 93 30 86 19 100 27 79 25 90 22 139
1450 0.10298430346774232 -1.1610660329250715 8.1665991448646924 186 177 170 1.7561633864438049 3 286 7 473 1 293
571 0.75565534623608566 -0.33778565869455995 4.5197493544773648 151 148 133 2.6379826117708909 23 184 14 24
390 -5.4084963529607677 -5.6421952482680311 23.423038493857856 25 31 27 1.3314351564347349 23 95 16 99 9 106 24 96 8 122 11 85 13 85 14 115 7 68 3 51
537 -1.0161643212748486 0.75613755002823058 8.7947028758808887 82 152 178 1.5183435998269501 13 458 16 737 14 600 4 230 15 310 10 261 1 216
392 -0.066607005195877506 0.63855311514219792 8.5109924209245076 178 198 207 1.9795015840529799 13 80 16 104 11 78 7 78 12 62 4 62 2 65
527 -0.75513530997799205 2.2878436923250467 9.4780519449805567 185 188 193 1.1783894064478229 13 627 16 674 14 637 8 430 11 374
541 1.6007721632899217 0.075607475835933566 11.491680501406236 211 90 121 1.5598766835791475 23 301 16 748
396 0.49576232222559191 2.0315963372727208 9.8459330805236398 74 36 49 1.3740583729261582 13 392 14 243 3 305 16 117
1458 -0.74171362740625535 -1.4421853225827828 8.8236223349261511 120 97 83 0.75346203669126366 15 429 6 167 10 480 5 462
515 1.7324796224560826 5.4663843949149129 8.040313388655548 176 131 92 0.06010800096436502 24 611 16 577
398 -6.3206249662972223 -6.2658945293512396 23.165474867513474 86 102 107 1.31828021830828 9 183 16 122 8 180 7 105 13 91 14 113 11 86
399 -6.1020023270247785 -5.9540327132583117 22.949037930986588 21 35 40 0.97900533561289782 23 151 24 144 16 123 9 104 8 120 7 74 14 114 13 92
1052 0.12768160347478763 -0.057301190170067094 8.6509901118508665 152 173 178 1.7329377343778967 3 118 12 119 13 144 14 179 15 156 6 302 7 90 5 301
609 -1.2185934904527256 0.42207956992510043 9.001930038257882 172 196 212 1.8299077455511805 13 147 14 145 12 61 3 82 4 63 15 74 10 57 5 50 1 65
400 0.18892113836224494 -1.9157843355580007 9.0820638186647145 144 150 138 0.12107099982294081 9 53 11 93
535 -0.60308899382953463 2.1197272026314318 9.288139589065441 170 191 202 0.53452697430754392 23 603 16 725 15 467 10 420 6 358 5 397
402 2.256025274364414 -1.3462937398071926 17.191546158740817 31 27 24 0.13645336433026745 24 152 16 128
613 1.4734987983314873 5.5429942129987966 7.7386427221849701 127 82 50 1.220589309579917 9 135 16 150 24 198 8 182 11 117
404 1.7999611637285844 5.6489347269766323 7.6761204144938233 151 107 72 0.86468106329252103 13 136 16 135 14 121 11 105
1074 2.0107940289992143 4.6567508729096332 8.4580966654661847 84 88 87 0.86472465347986249 7 392 12 321 1 200 2 196
405 -1.6323451503386619 1.9689465542195839 10.89276242286194 154 177 183 1.1151069001637766 13 53 14 93 7 55 3 38
523 -1.7622936467109398 2.1496649576993354 10.555250250813817 42 72 91 0.92918533066150977 23 401 16 638 14 625 28 397 18 481
406 0.051561530338038612 0.5415812208986992 8.3702821385706958 234 255 255 1.1842819451713165 9 157 23 153 24 160 16 138 14 99 8 130 11 97
617 1.2618452106210869 5.7735438572537143 7.5447757976911296 126 82 47 1.1182648340804942 13 185 14 164 7 152 3 109 12 110 2 133
408 -4.0666526177525073 3.077747474483143 16.55401739417162 0 0 0 0.11830607348797867 13 124 24 174
543 -8.4882712892652439 -1.8388807352933902 16.721303842936905 69 54 59 1.3253084129539319 24 629 16 751 23 455 28 392
1643 -1.9235888743644181 -0.3851872275171791 8.9040612074433252 72 62 70 0.37555316251777571 6 49 5 12
410 1.4644849838920817 5.6443375761444257 7.5405818011491244 123 83 47 0.92742632485382859 13 143 16 154 14 157 11 106 7 98
531 0.30217961948923355 3.534965030812391 5.6341154749882119 43 52 59 1.210405136821824 24 528 16 704
1410 -0.37802567244573182 -0.068726363649673911 8.6041804285854262 192 208 207 0.30013289886752459 12 306 15 326
416 -10.325519087559039 -6.3424973839821357 20.154144914880419 97 109 109 0.61951436343461164 24 279 16 164 23 211 29 284
420 -0.83795798818559375 -0.97678451130746413 6.5551580328755295 138 92 69 0.91641761744507289 23 63 16 169 11 208
1239 -12.241115946359228 -11.048019675583285 22.487642257568691 94 94 92 1.4181923181179605 23 147 28 115 24 105 9 99 29 127 30 154 19 113 27 165 25 152 22 120
422 -6.5096762615550769 -1.5760899380052087 17.255132835234875 67 65 69 0.59374210511412651 9 269 24 291 16 172 14 130 11 128 23 279
423 -1.0943965168137335 -0.16230796431639477 8.7865269228072389 192 219 226 1.7495706449273474 9 306 16 173 14 181 8 404 7 121
1076 1.6439374485684199 5.3752231020880403 8.0463415761895742 141 95 59 2.0570768633228083 11 305 12 334
569 0.8373054384645503 5.9427160391203939 7.1495362168361263 140 97 62 0.77473909058902057 13 21 14 22 7 24
424 -0.66225264404761541 0.37393578592123966 8.3721664292164029 180 203 210 1.9640569443840818 24 157 16 174 18 131 28 150
425 -5.4677552785329686 -5.5189491717565549 22.190346533810338 45 38 36 0.22192484775068999 13 213 16 177 14 174
728 -4.2157249979925959 2.7068855971000203 11.086970809553334 92 52 61 1.6613596838840492 16 109 24 127 8 79 14 69 7 51 3 55 2 46 30 133 19 131 27 151 25 116 22 89
1086 -0.95925367516580029 1.7312231852154343 9.1732399925255912 100 139 144 1.3696823941831104 8 380 14 617 12 407
559 -0.81204729312787505 3.5339101820541288 10.360825924387195 175 188 196 1.8642906670697932 23 505 16 449
426 1.1893273967379736 5.1330778777023589 8.0195292323539178 20 28 30 0.88262468547158046 13 180 16 182 14 213 9 226 24 188 3 135 12 142 2 99
1754 -2.9848086869550379 4.2897900308329833 8.8016584931300645 67 77 78 1.1302951818266695 4 69 1 142
427 1.4916654485456704 5.5070827637777082 9.3724645778472588 22 31 30 1.9690264376374624 24 270 16 184 9 174
428 1.9457097879167473 4.734309658133987 8.8376117528579439 24 28 31 1.3462404212045651 23 175 16 189 24 255
430 -0.86004052535175046 2.0144231154347296 9.399826643659619 141 179 188 1.130529170955259 9 208 23 210 24 172 16 195 8 158 11 124 7 95 3 90 12 106 28 267 10 104 5 100 2 78
513 -1.7354976304992384 2.2837125853625873 10.583648246781433 29 114 144 1.0309102790204014 24 655 16 550 23 483 14 395
432 0.93904715489115087 -1.9387407159679688 18.58380147575307 68 66 70 0.63459679053706919 23 199 24 223 16 202 9 212 8 227 18 196
1422 -0.71679863712851111 2.064476315965432 9.308134372371752 112 149 153 0.45407250132970933 23 599 15 464 5 402
567 1.9117571606681698 2.235191170459669 12.825041808905103 107 69 78 1.1991994806302444 13 18 24 21 14 18
434 -5.7608455065183692 -5.9674215970217759 22.95870868699232 129 99 87 1.3976651962114035 13 197 16 209 14 134 8 203
517 -1.5263177206706438 2.8891476162937764 10.505818214295275 54 65 69 2.064986786673904 23 626 18 433 29 393
436 -9.3068409706996924 -6.0997907593203795 20.97305827333086 65 71 69 1.1744370524474363 9 300 24 338 16 212 8 331
437 -5.3590724469003455 -6.5262953302651558 22.99363696849662 83 94 100 0.58658563983569356 13 193 24 282 16 213 9 240
555 -0.036297018176667133 3.8433465350672784 10.083078757308266 64 74 75 1.6376326439809432 9 159 16 139 14 116 8 132 18 139 28 137 30 139 11 113
438 -9.57455642903839 -6.3741177235984789 20.722389422686142 83 91 87 1.6456951115606824 23 234 24 280 16 214 8 279 18 179 29 211 30 206 19 201 25 122 22 144
521 0.24829333214135987 3.5945793336715401 11.082586540702515 34 40 38 1.9991775900977682 9 463 16 632 14 378
442 1.7924946728240889 5.543411162668705 7.7955651710070883 119 73 39 1.4041509285552234 13 134 16 226 14 154 9 134 8 139 11 167
525 -1.5763134415253637 3.1170134567988916 11.19782761750742 168 179 185 1.8713039434261292 13 650 16 648 14 313
444 0.46421370231552772 5.5740044979080725 7.3890721605756964 25 32 32 0.91250253115484858 13 142 16 230 14 158 8 141 11 201 7 153 3 108
2269 -2.2369126010470293 1.89891424871215 10.576016365227598 178 196 206 2.0701611559478739 22 44 44 55
1442 -0.82964781237346019 2.105379163564927 9.4215727936524427 163 183 190 0.17034189578334422 13 618 15 624
563 1.0466756171948575 0.68051391593975907 3.9180897730631234 47 59 59 1.1238524859991352 23 15 14 6
446 -0.58266025209055883 0.39005586808704917 8.0537999469544008 182 205 211 1.9165200714940593 13 316 16 239 14 234 11 125
1830 -0.93698357033131341 1.8236623775956631 9.512750589710592 163 193 203 1.4053299521044345 6 336 10 318 2 194
593 -5.3893028861777994 -5.9390096300184458 22.895253849337461 130 88 64 0.90811599637084683 13 62 16 98 14 88 8 104 9 93 11 73
1619 0.39325013675969961 0.23767291578313524 9.7785413479160184 155 183 187 0.51051358850898521 15 338 6 491
450 -0.90537052578613164 2.1119062773442896 9.5135069642350718 168 185 193 0.46559323171538736 23 282 24 303 16 255 10 134
453 1.9890861697673643 5.5995673685883531 9.0661508481145479 142 105 80 2.5532372226569287 23 73 16 268
1514 -0.76417593656571103 2.05468959373527 9.3230264085165935 98 139 143 1.0733136356400039 16 728 10 659 5 404
635 0.56229760962048914 5.5362569892353228 7.4870394958100857 27 37 36 0.89619702890107478 9 199 16 151 14 217
455 0.72026584831150053 5.4278766176652988 7.6100778716684534 21 26 29 0.89087008391607458 13 183 16 274 14 275 9 197
1108 1.7465667379960095 2.9257614059680219 9.2723140541315576 13 17 18 0.83705789810082054 23 14 18 15
456 -1.0298333830009903 2.6403729714112965 9.7836380557718492 61 138 160 1.5601296811628769 13 162 23 416 16 276 14 251
591 1.6767330133079541 2.3698968522046626 12.087347007222119 61 72 74 1.3734201633239709 9 120 16 106 14 84 8 98 7 87 3 87 12 78 2 66
1627 0.57547643711761665 5.0799480154335868 7.32722140678292 45 51 49 0.53420859468765614 10 367 15 1031 6 544
458 -12.565405751967347 -10.610264045320021 24.580440539294148 26 27 24 1.386602254697336 16 282 18 234 8 278 28 339
605 -3.9039994457629938 -4.8962411961068009 21.385458837421886 129 84 61 1.3924560979994549 13 114 16 175 14 135 8 220 9 243 24 287 2 62
460 3.4880151471968941 -0.56909668085403242 16.434237750724506 71 65 68 1.2594110354616419 13 219 16 289 14 232 8 292 7 174 3 171
1522 -1.4964782303835058 2.6527848518016066 10.4701733012209 82 113 124 1.2195928415951456 13 645 16 682 10 307 14 551 15 657 6 272 5 246 1 231
579 -1.5568360899891061 2.2338693235993596 6.3482020162527153 0 0 0 1.7893145496201879 9 142 16 66
462 -4.7125717256834161 -0.060713425468668432 15.604831768876958 91 78 88 1.4233437914168108 9 248 13 268 16 292 14 184 8 232
1828 1.5899727254904195 5.3548562049218944 7.8091871360933132 148 99 66 0.4379992454892439 7 261 12 251 2 157
599 -0.94604030970885 1.8655875429501925 9.4973286404137998 169 199 207 1.4302564739807531 13 97 14 104 8 136
1699 -0.75222421657848215 2.065564015632781 9.2974492288981079 145 183 192 0.18385683868861755 10 663 15 613 5 406
466 -1.2833287023353344 2.8113653256253013 10.283407321932591 144 188 201 0.57588421764165254 13 264 16 308 15 116
468 -2.19283861819163 2.0343693298434538 6.0502027061027794 195 70 102 0.72826371927460265 9 319 16 311
1530 -0.30628045777673013 -0.019067776179338129 8.7990735968076859 233 255 250 1.0735808602178145 4 244 6 234
587 0.48009112267070031 3.7955741400904537 10.373789169400792 57 68 70 0.94047802429138949 23 56 12 57
470 -0.66533948043551094 2.3519658101265608 9.9395075885189303 150 148 153 1.811053642994338 13 398 16 315 3 193 2 125
1854 -10.434175313571879 -3.3304758957557588 16.71370090509334 192 217 222 1.5614410619684538 18 35 29 20 30 29 19 16 27 20 25 23
681 0.85771292961523471 5.8214731950811052 7.3165681024040179 108 71 53 0.52320477052520897 13 533 14 450 11 270
1836 0.7619650833880941 5.695321951094229 6.7286295374456673 138 89 59 1.327189125876501 3 340 12 594 2 244
607 2.9878942326239417 1.919051630812153 13.132535097113108 60 61 66 0.74274429784729357 9 253 14 138
685 -0.11774722708345654 -1.7491494446850808 7.8827011501596447 145 151 146 2.0913758165533851 13 303 14 506 7 324 15 518 6 461 1 230
478 1.6252659143619257 -0.38932735412618558 15.795586153143393 120 83 98 0.2341424577777457 24 293 16 329
1853 -1.2646381742414776 2.6802220479181429 9.6506725145684822 53 63 72 0.84954985371480951 29 19 19 12
479 -7.4787591576238253 -1.0794229671958957 14.344864307937412 15 13 14 1.6809038127299041 16 331 28 393
625 2.7717498689637092 1.7291245863678484 13.005412453421576 56 66 65 0.52894970951496045 13 150 14 189
480 -1.0534656907711095 -0.54036579541710439 8.7832798559016663 253 254 249 1.1666212645662408 13 620 16 332
615 0.37792083417912492 5.6249548009601034 7.2841300470162267 30 36 36 0.76986653169859776 16 232 14 159 8 184 11 119
1651 0.034045919478998786 -1.2703763210005115 8.0945962646395238 116 117 101 0.94707243690529019 4 47 7 70 13 71 5 35
482 -8.6694897502510173 -3.7922953511046567 16.18005864711759 109 123 132 0.99763739695678699 24 341 16 336 23 350 28 289 19 279 27 333
483 -5.9493725921559504 -5.9127218239290276 23.209095139930692 44 37 35 0.58550529039252786 23 258 24 340 16 337 9 265 14 279 8 330 11 203
539 -1.1362418195980983 0.65348366105955868 8.8691171417114916 115 188 211 1.0271335449052144 13 453 16 743 7 457 3 294 12 301 4 200 15 217 10 337 6 241
1418 -1.2713680256549995 0.72313169532323884 9.0428171678947908 124 195 209 0.92320837367308872 7 452 15 446 6 320 1 244
486 -0.21899767910289236 3.7212094913813778 9.8305041449270885 65 76 80 1.9880396752050415 9 233 24 252 16 344 23 197 14 205 8 169 11 160 12 90 13 428 16 653 15 95 1 93 23 333 4 68
633 1.7942338017159682 5.5014245713672123 7.9207424633389953 162 114 78 0.91023627372211457 16 223 24 263 14 215 11 157 7 150 12 143
623 -0.070687736255502301 -0.0058864522228269829 8.32830677028082 156 172 177 1.3176259477790704 23 120 5 76
1659 -0.96253527824546181 0.20336142686793129 8.7592015985182581 174 199 206 0.89940191005365966 10 75 15 98 5 72
490 -1.3000494433350525 3.3528732743624547 10.727959246795496 144 159 164 2.1481919392178024 9 389 13 718 23 649 24 463 8 418
637 0.083007655431969127 5.838312056015492 7.0376907279455807 24 33 32 1.0516714464592696 13 188 14 220 11 111
492 -0.95992662070203538 2.1683951436559958 9.5366500027642509 155 150 155 0.5938922846033583 16 374 14 303 3 129 12 128 4 109 15 196 23 325 10 137 6 117 5 134
494 2.03486622665267 1.3821890192728232 7.4206368775399278 57 54 57 0.72655214120055267 24 236 16 376
496 0.35035157204492634 -1.8988805877326849 17.179072841747956 208 83 120 0.60485781689835083 9 311 16 396 8 329
1603 -4.3469105200739486 8.6332766592853698 19.641026262113002 79 83 94 0.072607791779824529 12 481 6 433
498 1.9172663905530718 4.696792174037288 8.7255631950007473 20 24 27 1.679039261990102 13 294 16 410 12 188 3 157 2 117 14 269
500 1.9816022831748104 4.9952374929451002 8.2680211716377201 58 38 23 0.58166213887582474 24 395 7 162
1042 -2.7318580473383189 -5.9808580900366906 23.617306754678918 90 51 29 2.3205681322838996 13 196 12 74 14 173
501 -0.36925932673945933 3.5554121826653944 3.1595149032874463 61 71 73 1.0286449153627939 13 439 16 444
639 -0.51859682072505253 -0.034138890672708901 7.7663034971316129 211 227 224 1.0565676799483652 24 356 14 231
506 -0.40933963291696968 3.5947094559155723 10.100575834765619 169 183 184 1.7998508499034951 16 518 9 441 28 375 19 261 25 371
507 -0.73094496625893168 0.27482177642284211 8.6846040911392333 191 209 219 0.92214988467070003 9 401 24 636 16 529 7 466
589 1.503030799304063 5.9126345482051255 7.3674655888355742 116 67 37 0.88725235201378327 13 65 14 78 11 89
1050 0.71481671935897118 5.416073300638927 7.6115385709740551 1 12 8 1.226122682537867 3 138 12 111 15 175 10 155 2 102
509 -2.078618101781541 0.61353427567038843 12.537405262785935 202 100 132 2.1418034368379311 13 148 16 535 14 186
510 -0.93528455169145819 0.90234302579021142 8.7774209243346242 127 195 220 1.0769365297660012 13 381 16 537 14 352 6 504 7 499
511 -0.83570950213307937 1.6713359228141818 9.1710011523378849 163 199 211 1.632480141470364 23 671 16 544 3 212 12 403 4 176 15 581 10 408 6 568 5 220
1100 -2.1237389447682413 -6.5651570920167721 25.25182708092894 84 49 29 1.2429877742984634 14 133 12 99 2 80
512 -1.4504022059362178 1.8434370618856912 10.002160297231942 151 163 175 1.3601427219961484 23 586 16 547 14 414 13 472 18 483
514 -1.3606652927708216 2.529038613786974 10.116975020244391 76 159 193 0.88503249922142435 13 487 16 553 4 184 6 179 1 203
1975 2.222271227242762 3.9677457505952347 7.3168911721013421 14 24 26 1.7573828613386819 29 133 30 196
516 -1.5627739715484454 2.5469239194111366 10.404338522140673 67 138 160 0.60238619948411554 13 642 16 610 14 549
1969 -20.672481100604301 -15.225162669891722 28.870928338870257 60 60 58 1.8284894065085004 28 118 29 123 30 153 27 163 22 174
518 -0.64825892010719655 2.6817310114542074 9.4043254442253588 129 184 204 1.0093180801896131 9 372 16 621
520 -0.48411202533301761 3.0322365378296547 9.4911820551627883 41 113 138 1.3935496564649783 13 656 16 631 5 435
524 -0.46517810130523929 2.3325653688570633 9.3385453697026772 139 148 155 0.78387666319418037 23 488 16 645 14 639 12 409 15 288 10 315 5 201
530 -1.6823242237266562 2.7718221000498224 10.703064035745266 58 64 67 1.8128295315214797 16 692 14 552 13 647 29 434
1921 -1.3404375694723865 -0.21171082969846242 8.7740989539227296 59 76 86 2.3439702445202388 28 276 19 335
534 -1.840608204187326 2.3165613190406362 10.551403854192657 56 64 79 0.84888482963295586 13 629 23 597 16 723 24 408 7 441
536 -1.0838256485647177 1.5546859255728291 9.2889968719042724 147 180 195 1.0358596025851818 9 402 23 579 24 646 16 731 14 358 8 379 4 264 5 163 1 278
538 -1.0628348176347815 0.65719785220243587 8.7813359636054393 148 206 227 1.2041880849735618 13 572 16 742 3 295 10 259 12 304
1935 -3.1544720308364034 -1.8158722881386569 10.47881147713365 26 36 38 1.2657758378370414 29 3 30 14
540 -1.0928024991902827 0.60086129861591686 8.8185492546539237 143 194 212 0.71176385590165359 13 451 14 341 7 327 16 745 10 734 6 238
542 -0.87431017589074955 -0.074591865716695571 8.7323321490660621 234 252 254 0.58265226874711562 13 220 15 211 1 226
544 2.193429273985211 5.1731159266345834 8.5599985613198903 96 52 15 0.23585998620481868 24 503 16 781
560 -1.3631064750574753 2.6701383710863928 10.053408240010491 143 189 202 1.4796009207884027 9 458 16 554 11 290
1961 -25.599975289863487 -20.125324234622727 31.131826016874356 14 23 18 0.9954238999981283 18 154 30 100 27 128
574 1.7567587942974585 5.4399591802508214 8.0945592664701422 156 108 70 0.78070900198659166 13 25 14 31 11 22 12 34
1240 1.0946313636688432 -2.7784843611673731 5.5107425741683889 41 29 19 0.3562391189749885 9 72 28 121
576 0.62431804963797921 0.069215600676114639 8.8212412425235911 64 68 75 1.7034596243832052 14 34 11 30 23 36 2 30
578 -5.5380406985306481 -4.5009682411003684 15.267415912256759 89 76 68 3.0778358072103087 23 31 14 39
582 2.7598224943985206 2.5898041076015907 12.759850034262248 56 67 71 2.3899646935820198 13 78 7 65 12 41
585 1.6884901711451363 5.8499186649177499 7.3286664316563019 143 97 61 0.97949844370877104 13 54 14 62 11 60
586 -0.80080170902710879 -1.3398772284889904 7.9999394987086632 134 90 73 2.3109413557950278 8 89 18 43 16 101 14 68 28 71
2047 -11.785263233912065 -2.2915858892322016 16.281615893250969 62 77 82 1.4240405177228943 30 224 19 209 22 243 25 359
588 1.4999269394586314 5.4546771152242934 7.8502611159169229 151 101 68 2.0043679583013683 16 68 14 76 7 69 1 73
2041 0.31128582979356106 -0.3237415570793179 8.5610384612703196 130 140 132 2.0975253178449802 30 183 19 176 44 202
590 1.1148444784961353 5.9227992461001486 7.2374378986537842 124 82 50 0.78852564335548969 13 64 14 79 11 90
1985 -27.147359943038502 -20.783011036237951 33.085779087075601 50 54 54 0.26740835295886589 28 200 30 250 27 278
598 3.8361196277318141 -0.6209772321711885 16.872359754025716 30 27 18 1.0996929980330397 9 152 13 94 14 97 8 93 7 67 3 79 2 64
602 2.2735672363551687 5.028229037611637 8.7127650216533716 140 85 58 0.7271690548654377 13 105 14 118 8 112 12 92
1323 -0.40737658655186698 0.92040107154290407 8.5077612314285709 125 159 172 0.45471494838055254 12 225 4 201 15 214 10 338 5 193 1 181
603 4.0397390111064215 -0.16881835799716474 15.910363356301707 114 64 76 0.71037294842651222 13 95 14 125 7 91 3 98 12 101 2 83 1 105
